ply
format ascii 1.0
element vertex 1646
property float x
property float y
property float z
end_header
0.000551 0.022199 0.080956
0.008988 0.017329 0.049380
-0.030378 0.004167 0.072819
-0.006739 -0.010174 0.081322
0.007812 -0.024375 0.072073
-0.020397 -0.062820 0.114886
-0.003436 0.003632 0.083191
-0.001563 -0.012940 0.082328
-0.032775 -0.046649 0.111337
-0.033104 -0.023357 0.113062
0.002594 -0.003581 0.057845
-0.051442 -0.042172 0.120416
0.013422 0.019559 0.022373
0.007440 -0.002092 0.074635
0.004513 0.006996 0.067140
0.008709 0.000528 0.075595
-0.003101 -0.012987 0.078635
-0.001276 0.010797 0.084340
0.001097 0.015082 0.086001
-0.002396 -0.031394 0.081289
0.000682 0.020976 0.077526
-0.018037 -0.021048 0.080816
-0.011555 -0.034256 0.091729
-0.001993 -0.002632 0.083354
0.000519 0.016985 0.080889
-0.000985 0.008408 0.086052
-0.009940 0.034517 0.103885
0.007403 -0.000541 0.076028
-0.035506 0.028057 0.099910
-0.033961 -0.024117 0.113701
0.008156 0.017166 0.055501
0.010266 0.028346 0.113090
0.009498 0.028753 0.112940
-0.000277 -0.018201 0.079452
0.014192 0.017493 0.041407
-0.010468 -0.047479 0.118071
-0.013728 -0.051110 0.117345
-0.020976 -0.024471 0.075958
-0.010731 -0.032425 0.091311
-0.001245 -0.014262 0.082141
-0.063105 -0.078379 0.115391
-0.016801 -0.064722 0.112382
-0.041468 -0.030509 0.116407
-0.003875 -0.017283 0.100984
-0.001142 -0.053372 0.114344
-0.001291 0.030590 0.097165
-0.001442 -0.026715 0.079389
0.000595 0.016211 0.081814
-0.015530 -0.053689 0.117299
0.012658 0.015160 0.036152
0.008194 0.001362 0.040338
-0.026611 0.002430 0.068266
0.003220 0.019328 0.085439
0.007591 0.017425 0.055382
0.014050 -0.002608 0.086193
-0.034255 0.022117 0.097945
-0.014483 -0.016762 0.081774
0.012560 0.014738 0.037099
0.001557 0.024153 0.072069
0.014381 0.017972 0.043707
0.010008 0.001551 0.076218
0.014372 0.017030 0.044570
-0.001215 0.014334 0.081916
-0.063503 -0.080135 0.115957
-0.001712 0.000759 0.084174
0.000799 0.025190 0.081680
0.002363 0.017631 0.082669
0.006846 -0.005572 0.075837
-0.018432 -0.064539 0.111916
-0.002456 0.009963 0.072035
-0.013336 0.028219 0.085436
-0.002729 -0.015040 0.055857
-0.013905 0.030052 0.089932
-0.009108 -0.035063 0.116900
-0.029163 -0.024159 0.113041
0.005571 0.029670 0.080920
-0.032850 -0.049197 0.112901
-0.004592 -0.008102 0.080297
0.009767 0.025581 0.093095
0.000920 -0.066571 0.115337
-0.008791 -0.032481 0.117556
-0.025670 0.005112 0.066999
0.012716 0.015207 0.035111
-0.011382 -0.020714 0.118227
0.007212 -0.002712 0.073362
0.010452 0.017884 0.044608
0.000258 0.027819 0.089563
-0.007446 -0.042876 0.117865
-0.022788 -0.019401 0.085044
0.000584 0.018169 0.080096
0.002636 -0.034117 0.079054
-0.002428 0.006576 0.086278
-0.032879 -0.049831 0.112755
-0.002191 0.009300 0.083733
-0.017811 -0.057895 0.115683
0.006239 -0.002035 0.077482
-0.001453 0.000983 0.084302
-0.010493 -0.023719 0.115715
-0.008952 -0.013128 0.109930
-0.002150 0.007573 0.083373
-0.017915 -0.021337 0.080791
0.010804 0.027407 0.114122
-0.001744 0.013962 0.064568
-0.013098 -0.051151 0.116463
-0.015040 0.027804 0.063438
-0.008743 -0.041202 0.119963
-0.029730 0.005964 0.072339
-0.002263 0.011555 0.070301
0.002596 0.030804 0.083450
-0.002241 0.006967 0.076799
0.004116 0.020279 0.088060
0.008898 0.031314 0.110100
-0.002391 0.004643 0.085871
-0.028905 -0.027485 0.113471
-0.001581 -0.013324 0.082240
0.009637 0.025469 0.093031
-0.031523 -0.046798 0.112762
0.002925 -0.031173 0.077641
-0.000879 -0.026964 0.078441
-0.036808 -0.067196 0.108854
0.009398 0.030449 0.111137
-0.002964 -0.012655 0.079818
0.002422 0.022526 0.080538
-0.037536 -0.028699 0.115879
-0.008423 0.031819 0.101634
-0.001904 0.007371 0.085543
-0.002067 0.011776 0.083238
0.005755 -0.002588 0.078282
0.002416 0.020101 0.087495
-0.001499 -0.015275 0.082913
0.007485 -0.003473 0.073282
0.012335 0.018297 0.036729
-0.007946 -0.026185 0.087109
-0.029858 0.005739 0.072251
0.007976 0.030552 0.107512
0.000292 0.010744 0.084815
-0.002849 0.019610 0.042997
0.000147 0.002395 0.082966
-0.000389 -0.016373 0.080882
-0.007150 0.031151 0.099746
-0.021116 -0.020784 0.084194
0.012751 0.015268 0.036204
0.011265 0.017742 0.041623
0.001953 -0.028317 0.077957
-0.007869 0.014285 0.073429
-0.013429 0.026083 0.061428
-0.008481 -0.034328 0.117253
-0.004652 -0.008700 0.084425
-0.061734 -0.076263 0.115204
0.008220 0.001350 0.074552
-0.011420 -0.012802 0.082510
0.007486 -0.005603 0.073891
-0.003965 -0.007798 0.080557
-0.002994 -0.011108 0.082281
0.010259 0.001517 0.077358
0.004997 0.021042 0.088498
-0.052848 -0.044233 0.118466
-0.018200 -0.063939 0.112118
-0.035638 -0.028274 0.116559
0.011409 -0.035070 0.101878
-0.029875 -0.031545 0.113362
0.009554 0.004295 0.037118
0.001799 0.023065 0.081530
-0.059541 -0.066327 0.116962
-0.006635 0.014810 0.072856
-0.001799 0.012137 0.082330
-0.014835 -0.006894 0.090212
0.009853 0.017459 0.046469
-0.031241 -0.035215 0.113215
-0.000500 0.005439 0.085561
-0.016897 -0.066799 0.111904
0.009697 0.001586 0.076129
-0.005249 -0.016599 0.103913
-0.005446 0.013510 0.076151
0.007363 -0.023347 0.074294
-0.060297 -0.065763 0.117919
-0.000653 -0.026032 0.079781
-0.017120 -0.067191 0.111750
-0.013535 -0.015786 0.081210
-0.025431 0.004367 0.072257
0.000628 0.018768 0.079170
-0.032276 -0.049663 0.111910
-0.028085 -0.028472 0.079304
-0.002964 -0.012633 0.078754
-0.002015 0.007843 0.084542
-0.001202 0.012387 0.084707
0.004619 0.020715 0.088310
-0.026695 0.005743 0.073232
0.001918 0.019788 0.087273
0.009764 0.016639 0.031298
-0.001420 -0.015576 0.057216
-0.019124 0.026799 0.087612
0.003830 0.019856 0.085742
-0.012235 -0.037832 0.093953
-0.001762 0.001872 0.085468
0.008038 0.015946 0.034890
-0.057537 -0.060093 0.117861
0.001276 0.026110 0.083095
0.009363 0.029249 0.113005
0.009710 0.027853 0.113880
-0.036439 -0.027547 0.116467
-0.056141 -0.055240 0.119343
0.007461 -0.003992 0.073162
0.009808 0.017513 0.046467
0.010637 0.005151 0.060087
0.011554 -0.035415 0.101848
0.007250 0.015557 0.036699
0.000640 0.019393 0.080378
0.000920 0.030470 0.083927
-0.031963 0.027100 0.097594
0.000236 0.015995 0.057069
-0.002418 -0.010214 0.083721
-0.006318 0.030621 0.099890
-0.038722 -0.030817 0.117191
0.008419 0.001224 0.074586
0.000871 0.024019 0.080380
0.004231 0.030033 0.080583
-0.002215 0.012774 0.066303
-0.006546 0.015137 0.071886
-0.027759 -0.019016 0.110311
-0.004356 -0.014606 0.055447
0.000007 -0.003248 0.081703
0.005949 -0.028886 0.078004
-0.002226 -0.002706 0.084335
-0.010569 -0.020596 0.117436
0.000070 0.026586 0.082824
0.014213 0.017575 0.040362
-0.018048 -0.058506 0.115477
0.000712 0.025246 0.080596
-0.008532 -0.000045 0.088300
0.004213 0.019776 0.087982
0.005738 0.030023 0.082117
-0.002946 0.019572 0.042959
-0.062255 -0.072085 0.115945
-0.000267 -0.024498 0.079164
-0.009882 0.032524 0.103472
-0.001787 -0.019031 0.078805
-0.002365 -0.011179 0.082460
-0.010113 -0.013136 0.080705
-0.006678 -0.042979 0.117012
-0.001898 0.007497 0.085572
0.013227 -0.025628 0.095929
-0.002630 -0.013714 0.080761
0.014280 0.017286 0.042459
0.011389 0.017923 0.041700
0.008473 0.001444 0.039373
0.001186 -0.028083 0.078839
-0.001974 -0.016367 0.081461
-0.031820 -0.034857 0.114182
-0.004597 -0.010285 0.081962
-0.057880 -0.062440 0.117248
-0.007104 -0.009876 0.081273
-0.006318 0.000221 0.085837
-0.000994 -0.014290 0.082213
-0.031623 -0.039472 0.113245
0.000522 0.007889 0.084269
-0.032671 -0.044774 0.112844
-0.037922 -0.028018 0.115906
-0.006150 -0.015670 0.107042
-0.039688 -0.029363 0.116137
-0.000952 -0.013395 0.082419
-0.003628 -0.008460 0.080519
0.008052 0.010304 0.055055
0.006106 -0.007062 0.077424
0.003513 -0.004108 0.078327
-0.005130 -0.017630 0.103727
0.006222 -0.000841 0.075597
-0.010978 0.033619 0.098024
0.002180 -0.028717 0.077941
-0.002128 0.000114 0.082836
0.001602 0.030735 0.084196
-0.019194 0.027121 0.088728
0.000755 0.030850 0.081820
0.000816 0.030628 0.079653
-0.005902 0.001073 0.087219
-0.012604 -0.049328 0.117010
-0.000814 -0.000658 0.083077
0.001900 0.018461 0.037807
-0.039758 -0.030269 0.116989
0.002715 0.031014 0.083532
-0.004133 -0.046056 0.114998
-0.008192 0.031625 0.096319
0.004616 0.028105 0.077078
-0.004872 0.000588 0.086364
0.003137 -0.002873 0.056029
0.008248 0.024413 0.093441
-0.013454 0.025853 0.060301
-0.002287 0.007160 0.085379
-0.013262 -0.003583 0.089277
0.012380 0.014885 0.037075
-0.009173 -0.024259 0.116008
0.000931 0.030432 0.082853
0.012708 0.015601 0.036262
0.007301 -0.024185 0.073025
-0.051084 -0.044309 0.120065
-0.014363 -0.017048 0.081750
-0.003233 -0.010824 0.082268
0.010153 0.001529 0.077328
-0.009380 0.033554 0.102781
-0.000440 0.010580 0.084552
0.001208 0.024639 0.082756
-0.018024 -0.020773 0.080879
-0.017198 -0.020625 0.082236
0.011978 0.000408 0.082996
-0.057551 -0.055320 0.118889
-0.021656 -0.065810 0.114919
-0.000735 0.003057 0.084973
0.004325 -0.003736 0.078659
0.000749 0.031235 0.082970
0.000288 0.026030 0.081703
-0.021930 -0.024987 0.079827
-0.003670 -0.044513 0.115475
-0.004711 -0.010015 0.081985
0.000870 0.014794 0.081593
0.001186 0.026545 0.084230
0.013435 0.019139 0.034045
0.007895 0.024967 0.093452
-0.008696 -0.000051 0.089317
-0.011573 -0.013083 0.084540
-0.013441 -0.016602 0.081063
-0.027040 0.002907 0.069305
0.007330 -0.021638 0.074653
0.000442 0.029982 0.097570
-0.002948 0.003577 0.083331
0.000898 0.015154 0.082749
0.007390 -0.023782 0.071001
0.009684 0.029373 0.113131
-0.057748 -0.059592 0.117904
0.000966 0.023376 0.069580
-0.001879 -0.014320 0.081932
0.007632 -0.021762 0.073651
0.008456 0.029857 0.108579
-0.000501 0.014601 0.081126
0.000054 -0.027140 0.079761
-0.031058 -0.031003 0.113112
-0.002504 0.008478 0.073837
0.007514 -0.021482 0.072606
0.011266 0.001962 0.070283
0.003049 -0.000787 0.055383
-0.001388 -0.028264 0.079071
-0.011407 -0.003073 0.089962
0.002242 0.030285 0.083228
0.007883 -0.023467 0.073360
0.008244 0.001869 0.074672
0.012672 0.015456 0.036220
0.000011 -0.001375 0.083178
-0.010575 -0.013669 0.109310
-0.030355 0.004649 0.072930
-0.028897 -0.022540 0.112404
0.007291 0.022848 0.092807
0.007386 -0.005512 0.074948
-0.007736 0.014129 0.074506
-0.005761 -0.043892 0.116029
0.007771 0.017046 0.056424
-0.022872 0.025862 0.090523
-0.019759 -0.022575 0.081021
-0.007797 -0.036962 0.117965
-0.002484 -0.013737 0.081871
-0.000696 0.007196 0.084811
-0.003852 0.019940 0.043827
-0.021689 -0.000631 0.066992
-0.002017 -0.000149 0.082814
-0.019349 -0.022621 0.081138
-0.026710 0.002882 0.072609
-0.014913 -0.017394 0.081504
-0.017783 -0.021398 0.081888
0.000621 0.026105 0.081822
0.006911 0.015348 0.037618
-0.003010 0.012773 0.067126
-0.005193 0.002079 0.086587
-0.037273 0.022012 0.100194
-0.022463 -0.019033 0.084155
-0.020916 -0.023843 0.080388
-0.012244 -0.022412 0.117593
-0.001255 0.030520 0.100368
-0.030721 0.004448 0.072773
-0.002725 -0.013069 0.080871
-0.001547 0.001627 0.084412
0.000579 0.015866 0.081734
-0.003429 -0.009442 0.081437
0.002891 0.019925 0.087604
0.007054 -0.001412 0.074663
-0.002012 -0.000348 0.083841
0.012505 -0.025398 0.095755
0.000339 0.025763 0.079523
0.000853 0.031111 0.082976
0.000134 0.007317 0.084025
0.001762 -0.029794 0.077579
0.000418 0.014738 0.082510
-0.002458 0.005936 0.086130
0.009848 0.029515 0.113213
-0.016452 -0.069760 0.112471
-0.019714 0.025278 0.087100
0.000217 0.011736 0.085006
0.000110 0.009411 0.084470
-0.008464 -0.029616 0.117208
-0.001158 0.001964 0.084606
-0.000855 -0.051410 0.114857
-0.007117 0.013735 0.074612
-0.018140 0.028167 0.066832
0.009960 0.028541 0.113037
-0.022891 -0.025208 0.077343
-0.019252 0.027448 0.089850
-0.013847 -0.016825 0.080889
-0.008446 -0.043149 0.118565
0.000614 0.019021 0.081358
-0.002039 -0.017075 0.080218
-0.008558 -0.000594 0.088174
-0.020742 -0.025133 0.082301
-0.001024 -0.025861 0.079703
-0.008509 -0.034929 0.117115
-0.002472 0.003274 0.083413
0.000313 0.019430 0.080284
0.007850 -0.018428 0.072301
-0.021625 0.025265 0.088643
-0.033037 0.020489 0.095833
0.010354 0.001290 0.077338
-0.006537 0.015612 0.076267
0.004562 0.018371 0.079234
-0.017012 -0.069291 0.111330
-0.030688 0.005171 0.072939
-0.062993 -0.075950 0.115951
0.001680 0.020506 0.080941
0.010375 0.018116 0.044635
0.009086 0.011567 0.051372
0.007150 0.017913 0.057488
-0.002698 0.003658 0.084494
-0.014514 0.031679 0.092233
-0.010089 -0.048148 0.118044
-0.033868 -0.044591 0.114650
0.000958 0.029365 0.077286
-0.007852 -0.010459 0.083054
-0.003237 -0.011297 0.083234
-0.012535 -0.048939 0.092528
0.004930 -0.037564 0.081157
-0.022502 0.003423 0.069754
0.002746 0.020413 0.079113
0.000977 -0.018652 0.062639
-0.000672 -0.030633 0.079850
0.003670 0.023580 0.066186
-0.000378 0.011926 0.084862
0.001599 -0.028027 0.077910
0.006424 0.003396 0.048781
-0.014787 0.027688 0.063492
-0.025873 0.004769 0.072207
-0.007705 -0.010927 0.081929
-0.004052 0.030222 0.100506
0.000547 0.027381 0.086351
-0.016905 -0.066129 0.113115
-0.009644 -0.016401 0.113284
-0.000452 0.010335 0.084496
0.000405 0.025189 0.077281
0.007493 -0.001073 0.073803
-0.000923 -0.019862 0.079962
-0.006001 -0.015558 0.108181
-0.010934 -0.048680 0.117668
0.010270 0.017552 0.047687
-0.032967 0.027554 0.098450
-0.016072 -0.056390 0.116547
0.000672 0.017878 0.081129
-0.002258 -0.030009 0.080562
-0.010129 -0.014276 0.110386
0.001514 0.016760 0.081148
0.007044 -0.006014 0.074734
-0.021594 -0.023176 0.078184
0.011809 0.018208 0.040823
0.004477 0.018731 0.034388
0.002659 -0.029501 0.076851
-0.003557 -0.046320 0.115119
0.001446 0.024954 0.082898
0.006355 0.021781 0.091217
0.000543 0.027406 0.085286
-0.037256 -0.067789 0.108587
0.011001 0.017880 0.043709
0.005804 0.002862 0.049543
-0.000582 -0.015670 0.057456
-0.000763 0.014671 0.061818
0.001623 0.031187 0.084300
0.000963 0.029467 0.077310
-0.017049 -0.058694 0.116815
-0.023061 -0.026005 0.077118
0.008024 0.029678 0.106269
0.000740 0.029826 0.080525
-0.010420 -0.046441 0.118311
0.000697 0.015969 0.081793
-0.002495 -0.013475 0.080855
-0.032996 0.026924 0.098305
-0.000393 -0.030142 0.080043
-0.000719 -0.013807 0.082403
0.000644 0.028443 0.081266
0.008040 0.015975 0.034896
-0.012817 -0.019936 0.115813
-0.005340 0.001699 0.086459
0.002014 -0.034386 0.077734
-0.009106 -0.000005 0.089200
0.009385 0.002159 0.075088
0.012412 0.014913 0.037091
-0.026883 -0.028909 0.078513
0.000230 0.017650 0.079874
0.011002 0.004957 0.059089
-0.006555 0.031666 0.100042
0.000915 0.018305 0.081297
-0.053542 -0.046719 0.119852
-0.014188 -0.052111 0.116986
-0.028002 -0.019995 0.111093
-0.026582 0.003106 0.072697
0.005168 -0.003205 0.077966
0.000127 0.009778 0.084555
-0.010819 -0.002565 0.090254
-0.001856 0.006678 0.077925
-0.002598 0.010605 0.069992
0.005961 -0.002953 0.078267
-0.002312 0.012043 0.067184
-0.003705 -0.010044 0.081221
-0.019130 0.026668 0.087581
0.001849 0.023999 0.082817
0.005053 -0.003915 0.076708
0.000952 -0.005281 0.080487
0.001544 0.029491 0.083909
-0.015290 0.028852 0.087105
0.001219 0.019103 0.038803
-0.012682 -0.003218 0.089535
-0.029397 -0.024938 0.112800
-0.022456 0.025955 0.090672
-0.012083 -0.013929 0.085268
-0.001507 -0.020935 0.078480
-0.010386 -0.013496 0.080543
-0.000380 -0.055768 0.115131
0.010284 0.001641 0.075254
-0.009424 -0.000948 0.088898
-0.007079 0.015563 0.076088
-0.022007 -0.018964 0.083242
-0.011642 -0.013280 0.085545
-0.022782 -0.022188 0.085512
-0.019362 -0.022899 0.081074
0.006811 -0.001880 0.075555
-0.009808 0.033904 0.102724
0.013430 0.019566 0.022377
0.012593 0.015018 0.036101
0.012740 0.015031 0.036149
-0.036843 -0.027668 0.115247
-0.052969 -0.045496 0.119225
0.007644 0.018308 0.031002
0.007650 -0.002241 0.072530
-0.051913 -0.043644 0.118883
-0.001950 0.008399 0.075061
0.012478 0.005730 0.056507
-0.017745 -0.065299 0.109827
0.000594 0.023501 0.071630
-0.033087 -0.049808 0.112696
-0.000330 0.007155 0.084915
0.008336 0.010742 0.055237
-0.000622 0.002791 0.084951
-0.001021 -0.024667 0.078893
-0.000668 0.031028 0.100659
-0.006463 -0.014267 0.108317
-0.005324 0.030510 0.100174
0.000591 0.024430 0.075037
0.009555 0.025574 0.090890
-0.025394 -0.000120 0.069161
0.007206 -0.021490 0.073577
-0.016774 0.027648 0.065005
-0.032924 -0.023784 0.113025
-0.009341 0.000046 0.088069
0.002786 -0.031532 0.077521
-0.000067 0.008201 0.084154
-0.024290 0.024902 0.089877
-0.004054 -0.021074 0.081937
-0.002997 0.013052 0.067190
-0.027373 0.002944 0.069210
0.001105 0.019990 0.081720
-0.032850 -0.048287 0.117374
-0.001667 0.003919 0.085939
-0.028441 0.003434 0.072191
-0.007704 -0.034616 0.117432
0.000944 0.023760 0.082484
-0.032763 0.026407 0.097196
-0.000349 -0.015223 0.056556
-0.004203 -0.007646 0.080516
-0.029365 -0.016704 0.110313
0.012475 0.018962 0.037985
0.010076 0.017406 0.045458
-0.013342 -0.005883 0.090893
-0.010781 -0.049678 0.115361
-0.001621 0.008100 0.085788
-0.008670 0.032871 0.102854
0.002282 -0.033563 0.079064
0.002525 0.022404 0.080543
0.002990 0.025682 0.080327
-0.058405 -0.057077 0.119313
-0.002427 0.010476 0.071086
0.002410 0.019978 0.087467
-0.011083 -0.012876 0.081530
-0.002647 -0.047818 0.115077
0.000110 -0.003628 0.081652
0.012643 0.015459 0.036212
-0.003622 -0.008335 0.080547
-0.001948 0.011763 0.083271
-0.008133 -0.013770 0.111114
0.000650 -0.022579 0.068103
-0.015090 -0.007842 0.090997
0.010331 0.018121 0.044622
-0.000382 0.009220 0.084276
-0.024291 -0.019577 0.086678
-0.001813 0.012111 0.083389
0.001510 0.023923 0.082695
0.012837 0.019397 0.038192
-0.011857 -0.011998 0.085756
-0.001671 -0.012542 0.082381
0.000292 0.014517 0.082423
0.006777 0.022649 0.092604
-0.009223 -0.037756 0.118421
-0.002264 0.005124 0.083877
0.000883 -0.067387 0.115149
0.007408 -0.000433 0.076053
0.007555 -0.004124 0.074232
-0.014388 -0.017589 0.081625
-0.032727 -0.045611 0.111576
-0.013064 0.028813 0.085649
-0.035460 -0.028932 0.116472
-0.023090 0.003828 0.070728
0.000918 0.023194 0.082354
0.007101 -0.000183 0.076012
-0.013137 0.028996 0.087804
-0.004422 -0.012367 0.079428
-0.002331 0.003221 0.085583
-0.011010 -0.050267 0.115163
0.000408 0.020351 0.078374
0.001665 -0.067885 0.115284
0.007280 -0.024205 0.071945
0.012558 0.018690 0.036883
0.007599 0.017602 0.056491
-0.010301 0.034857 0.100639
-0.008163 0.031360 0.095201
0.007399 0.017557 0.056420
0.002919 0.020536 0.087745
-0.026913 0.003234 0.069415
-0.017851 -0.019965 0.081107
-0.007202 -0.013686 0.110352
0.008493 0.020664 0.096983
0.012404 0.005601 0.056456
-0.012559 -0.041391 0.096290
-0.001673 -0.047928 0.115355
0.002708 -0.035282 0.078824
0.001804 -0.031547 0.077213
-0.000694 -0.026927 0.079575
-0.004886 0.012865 0.070840
-0.001753 -0.027966 0.079023
-0.003869 -0.015730 0.056424
-0.001683 0.001389 0.084319
-0.016305 -0.018599 0.080813
-0.061016 -0.071013 0.116561
-0.014547 -0.006926 0.090294
-0.002114 -0.011945 0.083442
-0.006138 -0.016136 0.105876
-0.014986 -0.055449 0.117087
-0.008214 -0.032007 0.090044
0.001314 -0.035383 0.078370
-0.012563 -0.037106 0.092939
0.007300 0.009752 0.057909
0.000638 0.021975 0.082004
0.010787 0.005056 0.059044
-0.028472 -0.017967 0.110317
-0.025453 -0.026969 0.078306
-0.002949 0.019524 0.042948
-0.009635 -0.011258 0.083397
-0.014178 -0.015445 0.081084
-0.001006 -0.014546 0.082154
0.004945 0.018536 0.082596
-0.013542 -0.051552 0.117308
-0.000091 0.010295 0.084599
0.001878 0.008475 0.084816
-0.001774 0.000027 0.081858
-0.018227 -0.056847 0.116849
-0.020589 -0.023520 0.079490
0.004817 0.028183 0.077158
0.001339 0.008244 0.083530
-0.061389 -0.068790 0.116926
0.000523 0.020554 0.078454
0.008067 0.015943 0.034898
-0.003843 -0.007811 0.080592
-0.005462 -0.017593 0.103633
-0.026593 0.002869 0.072642
-0.021370 -0.024559 0.075817
0.002989 0.019422 0.087526
-0.027002 -0.028471 0.078571
0.000875 0.029208 0.082571
0.004356 -0.035502 0.080356
-0.004586 0.029302 0.102279
-0.008803 -0.042075 0.118686
0.000844 0.022896 0.079060
0.002586 0.030582 0.083398
-0.005466 0.030526 0.100133
0.007053 0.000820 0.075144
-0.010974 -0.020361 0.118430
0.011231 0.005155 0.059203
-0.013369 -0.006469 0.090758
-0.025715 0.025799 0.091766
-0.003735 -0.019787 0.082314
-0.010329 -0.024325 0.115635
-0.017328 -0.056462 0.116142
0.003139 0.018568 0.036076
0.006392 0.022484 0.089242
-0.001897 -0.019373 0.079766
-0.028083 0.002335 0.073134
-0.002265 0.009737 0.072045
0.002750 -0.034387 0.079030
0.007918 0.001466 0.075552
-0.002358 0.008769 0.075015
0.004513 0.028016 0.077027
-0.005096 0.012587 0.070715
-0.020648 -0.000325 0.066312
-0.003548 0.019051 0.043729
0.011601 -0.031271 0.100620
-0.003257 -0.011795 0.076706
-0.013999 -0.007576 0.090323
-0.037422 -0.026761 0.115264
-0.010119 -0.032494 0.091486
0.008470 0.023745 0.093366
0.001078 -0.022534 0.069315
0.002223 -0.034842 0.078769
0.012669 0.019130 0.038082
-0.021760 -0.019258 0.084325
-0.018525 0.027925 0.066660
-0.002022 -0.016697 0.080305
-0.000585 0.012687 0.084963
0.008524 0.017257 0.053496
0.007879 0.000621 0.075357
0.001452 0.029814 0.082881
-0.038544 -0.027949 0.115728
0.001029 0.023182 0.082386
-0.001626 -0.029091 0.079888
0.003886 -0.034385 0.079383
0.005177 0.029620 0.083994
0.007990 0.010378 0.055051
0.007690 0.001067 0.075395
-0.001206 -0.054761 0.114024
0.000728 0.021284 0.080813
0.005649 0.018409 0.032543
-0.034775 -0.067717 0.106164
-0.031217 0.004873 0.074849
0.007780 0.000738 0.075352
-0.013097 -0.015693 0.082435
0.001639 -0.005843 0.080579
-0.001825 -0.026800 0.079252
0.004679 -0.003429 0.078835
0.000931 -0.023713 0.070083
-0.003156 -0.014420 0.054790
-0.000755 -0.026978 0.078476
0.002819 0.026440 0.081507
0.007732 -0.002550 0.074627
-0.002254 -0.002620 0.082207
0.000720 0.025870 0.081802
-0.001990 -0.019451 0.080789
-0.002746 0.012557 0.067161
-0.030322 0.005372 0.073096
0.001984 -0.034558 0.078756
-0.001189 -0.020212 0.079804
0.005011 -0.034640 0.079677
-0.029975 -0.030964 0.080318
-0.018913 0.027492 0.088895
-0.025155 0.004190 0.071236
-0.010986 0.034634 0.099310
-0.001148 0.031242 0.099488
0.010300 0.025083 0.094222
-0.005792 -0.015360 0.107220
0.005445 0.015159 0.041399
-0.001754 0.008189 0.084697
-0.004977 0.001129 0.086449
0.011724 0.017956 0.040742
0.012665 0.015308 0.036186
0.011899 -0.038407 0.102377
-0.001962 0.006072 0.080968
-0.026605 -0.018758 0.110725
-0.001655 -0.019526 0.079808
0.011518 -0.029872 0.099828
-0.012674 -0.019965 0.116920
0.007538 -0.018285 0.072235
-0.000283 -0.027538 0.078502
0.001877 -0.031963 0.078215
-0.001783 -0.014973 0.081821
-0.012467 -0.050804 0.116733
0.006030 -0.001788 0.077471
-0.006827 -0.015419 0.106886
0.005736 0.021850 0.091040
0.006399 0.015586 0.039649
-0.028721 -0.022958 0.112368
-0.020519 -0.024167 0.080441
-0.008487 -0.011230 0.081621
0.012796 0.019180 0.038132
0.014170 -0.002621 0.086228
0.000355 0.017971 0.079982
-0.014477 0.032482 0.093487
-0.033678 -0.045041 0.114612
-0.001681 -0.015499 0.081739
-0.005792 -0.016001 0.106012
0.000018 0.025691 0.079408
0.009116 0.024058 0.093634
-0.017520 -0.070483 0.111984
-0.010274 0.035443 0.100774
-0.025323 -0.027123 0.078313
0.005618 0.002760 0.049463
0.005506 0.021986 0.089929
0.001866 -0.027557 0.078094
-0.018611 -0.062778 0.113310
0.001340 -0.023752 0.069133
-0.002337 0.007532 0.080099
-0.012648 -0.050252 0.091141
-0.035990 -0.067717 0.108995
0.002749 -0.003444 0.078234
-0.021404 -0.023567 0.079228
-0.028282 -0.017989 0.110371
-0.000148 0.009071 0.084317
-0.010605 -0.033887 0.092103
-0.018623 -0.060875 0.115856
-0.000641 0.011463 0.084681
0.000818 0.024629 0.079426
-0.031231 -0.035009 0.113262
0.001309 0.024401 0.082736
-0.017870 -0.059163 0.115390
-0.000336 -0.014408 0.055667
0.008757 0.029894 0.110819
0.001894 0.020371 0.080977
-0.002033 -0.016949 0.080247
-0.011248 -0.013651 0.081311
0.011205 -0.039325 0.101964
-0.000641 -0.032724 0.079408
-0.011810 -0.013960 0.085346
-0.028571 -0.028453 0.112297
-0.004192 -0.014624 0.055494
-0.001715 -0.032320 0.080231
0.002979 0.020539 0.086695
-0.000916 0.031773 0.100744
-0.003482 0.012454 0.066910
-0.002277 0.008877 0.073994
0.001851 0.018844 0.082772
-0.008047 -0.015071 0.111928
0.014317 0.017243 0.042461
-0.000039 0.008813 0.084295
-0.002916 -0.017175 0.095960
0.000832 0.021161 0.080819
-0.001877 -0.019721 0.080766
0.000709 0.013168 0.083330
0.001485 0.020970 0.082049
0.007458 0.023730 0.093049
0.014128 0.018009 0.040430
-0.003279 -0.008873 0.080537
0.000020 -0.057748 0.115896
0.000428 0.017180 0.079834
-0.058908 -0.057742 0.119014
0.001525 0.019975 0.086123
0.012862 0.018573 0.033745
0.008118 0.001362 0.074523
-0.007167 0.013675 0.073515
0.012559 0.018719 0.036890
-0.003152 -0.014338 0.054809
-0.023006 0.023783 0.088963
-0.002054 -0.047686 0.115290
0.007008 0.018804 0.030912
-0.033463 -0.022504 0.113135
0.013367 0.019000 0.028649
-0.020028 -0.063933 0.114760
-0.000664 0.030671 0.096307
0.001297 0.016898 0.081111
-0.022117 -0.000691 0.066846
-0.011779 -0.048873 0.091708
0.002757 -0.034470 0.077946
0.009792 0.018939 0.027528
0.001881 0.026804 0.088777
-0.001793 -0.019155 0.078776
-0.017453 -0.063672 0.114545
0.001510 0.028986 0.094479
-0.002185 -0.020227 0.079492
0.000261 0.017819 0.078851
0.006212 -0.007187 0.077429
0.007781 -0.022722 0.072421
0.001348 -0.029108 0.076530
0.007819 0.018747 0.030082
0.001700 0.008325 0.083659
-0.011567 -0.003486 0.089823
-0.031970 0.026945 0.097559
-0.011857 -0.013693 0.082182
-0.000106 -0.022466 0.078583
-0.023713 -0.070205 0.115469
0.002163 -0.029089 0.077855
-0.052471 -0.044619 0.119568
0.000778 -0.020682 0.065346
-0.001160 -0.017873 0.081388
-0.000019 0.026512 0.081712
0.012825 0.019442 0.023232
0.001609 0.016409 0.081102
-0.005329 -0.020534 0.081658
-0.011704 0.031772 0.093124
-0.004986 -0.022317 0.083517
0.006498 0.003641 0.047788
0.012013 -0.035958 0.101873
0.001386 0.008284 0.084622
0.003799 0.001117 0.052820
-0.003457 -0.017262 0.097912
-0.032834 0.027064 0.098385
-0.000463 0.023207 0.073377
-0.008839 0.014880 0.075396
0.007274 0.022464 0.092718
0.011615 0.023978 0.084770
-0.010831 0.033746 0.098097
0.001686 -0.028786 0.077773
-0.062482 -0.075275 0.116255
0.002422 0.020223 0.087523
0.013535 -0.000795 0.084287
-0.000178 -0.025269 0.079025
-0.030598 0.004555 0.072834
-0.002267 0.009519 0.073067
-0.005216 0.013522 0.075156
-0.000113 0.022627 0.081912
0.000124 -0.010418 0.068430
0.014112 0.018136 0.041521
-0.000326 -0.014722 0.056671
0.001926 -0.031560 0.077248
-0.002075 0.006022 0.086268
-0.000096 -0.027637 0.079607
0.012048 -0.025794 0.095528
0.010249 0.026895 0.114909
-0.001801 0.001529 0.084313
-0.021740 -0.023432 0.078084
0.001861 -0.004973 0.079766
-0.009837 -0.047133 0.118342
-0.008906 -0.014052 0.111882
-0.000162 0.023105 0.074517
0.002032 0.018984 0.084997
-0.022808 0.025140 0.089318
-0.062277 -0.076030 0.116155
0.001374 0.018967 0.037753
-0.027151 0.002919 0.069273
0.010545 0.024927 0.094264
0.007181 -0.024395 0.072942
-0.012831 0.028537 0.085661
-0.008726 -0.040067 0.118075
-0.012006 -0.034556 0.092594
-0.015242 -0.007974 0.090921
0.010722 0.002308 0.070189
0.006111 -0.006949 0.077450
0.012721 0.015242 0.036189
0.007641 -0.002445 0.072483
0.001292 0.019022 0.082637
-0.000801 -0.056325 0.114880
0.011509 0.018027 0.041760
0.001015 0.023376 0.067457
-0.010876 0.034922 0.100475
-0.001771 0.013175 0.065458
-0.000045 -0.035551 0.080051
-0.007219 0.015689 0.077141
0.004470 -0.003809 0.077620
0.001025 0.020681 0.081844
0.010999 0.017837 0.043699
-0.000693 0.012945 0.084985
-0.001430 0.012674 0.083629
-0.004219 0.019074 0.044595
-0.006076 0.013911 0.076042
0.009146 0.001794 0.073866
-0.040327 -0.029506 0.115908
0.000620 0.016747 0.080868
-0.012915 -0.051412 0.117532
0.009589 0.018991 0.027476
-0.019597 -0.022034 0.081188
0.010247 0.018132 0.045668
0.011765 -0.031129 0.100701
0.000246 0.017983 0.079951
-0.001758 -0.017162 0.081356
0.005008 0.021286 0.088554
0.011474 0.024512 0.085911
-0.031850 -0.040443 0.114034
-0.002207 0.006349 0.083091
-0.003734 0.012948 0.066939
0.000476 0.018468 0.081196
0.002143 0.018852 0.085003
-0.019076 -0.058178 0.115229
-0.008733 -0.031182 0.116786
-0.051603 -0.045649 0.119615
-0.001121 -0.025849 0.077538
-0.021647 -0.024925 0.075652
-0.003982 -0.008170 0.080471
0.012616 0.018661 0.037964
-0.002275 0.009533 0.071998
-0.009658 -0.021884 0.117440
-0.005946 -0.023704 0.085058
-0.001837 -0.002493 0.084501
-0.008334 -0.031027 0.116943
0.008458 0.023489 0.093307
-0.022404 -0.069912 0.115938
0.002787 0.005788 0.072758
0.012340 0.014700 0.037023
-0.001964 0.001156 0.082043
-0.005621 0.030252 0.100026
-0.000443 -0.001411 0.084098
0.010369 0.018987 0.026648
-0.000338 -0.000257 0.082242
0.002499 0.026342 0.082455
-0.002126 -0.008194 0.082111
-0.003176 0.019743 0.042924
-0.008634 -0.010504 0.082802
-0.002468 -0.017076 0.058705
-0.002073 -0.031618 0.080272
0.006480 0.003330 0.048784
0.008066 0.015913 0.034891
-0.001873 0.019258 0.042154
-0.023228 -0.000410 0.068700
0.000587 0.020202 0.079467
-0.021327 -0.023637 0.076029
0.008026 0.015679 0.034828
0.001840 0.031049 0.084337
0.013900 0.018309 0.041493
-0.034367 0.023091 0.098121
0.000756 -0.022606 0.069200
0.006698 -0.000097 0.074836
0.000737 0.023855 0.081372
-0.021167 -0.022994 0.076218
0.000827 0.030555 0.082848
0.010625 0.002224 0.070141
-0.051560 -0.044721 0.119829
-0.031058 -0.035649 0.113178
0.009092 0.030483 0.111050
0.007531 0.022564 0.092820
-0.026903 0.003460 0.069467
0.000953 -0.026081 0.078130
-0.026027 0.002447 0.072726
-0.001582 0.000871 0.084238
-0.008235 -0.042966 0.118670
-0.001770 -0.000502 0.083883
0.000761 -0.024936 0.078318
-0.011900 -0.036532 0.093268
-0.012235 0.031832 0.092972
0.002111 -0.004643 0.079915
-0.008876 -0.011317 0.081482
-0.007958 -0.031568 0.118012
-0.003065 0.003715 0.083324
-0.009236 -0.025622 0.115694
-0.024177 -0.020690 0.085404
-0.012456 0.032255 0.094064
-0.008854 0.031750 0.100416
0.002408 -0.031739 0.077359
0.001282 0.013467 0.082503
-0.002273 0.006942 0.081060
-0.009366 -0.036379 0.117605
-0.000232 -0.030580 0.078929
0.000951 -0.024635 0.077373
0.003951 0.018761 0.082336
-0.006309 -0.043629 0.116985
-0.008958 0.033054 0.102804
0.001000 -0.036039 0.079200
-0.008507 -0.026359 0.116829
0.005176 0.021746 0.087637
-0.012090 -0.014069 0.085236
-0.000825 0.012714 0.084894
0.010170 0.027478 0.113941
-0.009475 0.000061 0.088031
-0.037032 0.021534 0.099096
-0.010555 -0.049348 0.117641
0.007834 0.000603 0.041132
0.001484 -0.005527 0.079530
-0.032995 0.023597 0.097586
-0.033598 -0.024977 0.113627
-0.029658 -0.026854 0.114443
0.002299 -0.003834 0.056630
0.000560 0.012469 0.083132
0.005002 0.021164 0.088526
0.001955 -0.030939 0.077391
-0.008176 0.014426 0.073365
0.002142 0.023362 0.081701
-0.002040 0.007132 0.085450
-0.002919 -0.014528 0.054840
-0.008143 -0.026919 0.115752
0.005675 0.002692 0.049466
0.001980 0.024611 0.081920
0.001972 -0.005105 0.079772
0.010908 0.017676 0.043636
-0.000112 -0.022590 0.078555
0.007013 0.015301 0.037639
0.009331 0.017294 0.048410
0.001554 -0.005106 0.080712
0.009438 0.017387 0.048463
-0.001960 0.009805 0.072155
-0.027847 0.002412 0.070017
-0.000368 0.031425 0.100838
0.001475 0.024025 0.067740
-0.012580 0.025591 0.060516
-0.009733 -0.015260 0.112434
-0.000352 -0.030438 0.078923
-0.003855 -0.008060 0.080535
-0.011003 -0.050214 0.114108
0.010989 -0.040462 0.101651
0.007967 0.017221 0.054385
-0.001293 0.010429 0.084255
0.007608 0.024227 0.093203
0.000535 0.017325 0.080967
-0.006987 0.015223 0.076043
0.000742 0.023967 0.081398
-0.002417 0.007535 0.079006
-0.003204 -0.017237 0.100133
-0.002835 -0.007235 0.079960
0.013919 -0.002839 0.086103
-0.010723 -0.023938 0.116666
-0.012261 -0.037464 0.092955
-0.009924 0.033637 0.100493
0.010402 0.003139 0.065994
-0.032053 -0.044843 0.113020
-0.001359 -0.013992 0.082164
-0.001053 -0.057504 0.114547
-0.026022 0.002566 0.072754
0.000511 0.018561 0.079089
-0.012665 -0.019769 0.116965
-0.002344 0.005996 0.082972
0.005983 0.021822 0.091111
-0.037904 -0.068145 0.108309
0.008584 0.017170 0.052427
-0.061367 -0.068308 0.117037
0.010929 0.004965 0.060138
-0.021226 0.025220 0.088757
-0.005469 0.001713 0.086422
-0.029049 -0.018096 0.110110
-0.000989 -0.014815 0.056445
0.000268 0.025585 0.081600
-0.008330 0.015060 0.074523
-0.015302 0.028596 0.087046
-0.003173 0.001387 0.084925
-0.015975 0.027113 0.064068
0.000791 0.023717 0.070669
0.002083 -0.005237 0.079778
0.007783 0.017313 0.056486
-0.000188 -0.028183 0.078392
-0.002583 0.007207 0.079952
-0.024276 0.000996 0.067611
-0.018428 -0.020728 0.080763
-0.007554 0.000149 0.087576
-0.010281 0.035297 0.100741
-0.000146 -0.054989 0.115372
-0.008755 -0.027517 0.116502
-0.006089 -0.023827 0.084987
0.011598 -0.037876 0.102399
-0.063652 -0.074655 0.116026
-0.001734 0.008366 0.085811
-0.003757 -0.011901 0.077597
0.000837 -0.020008 0.064441
0.001831 0.021384 0.081177
-0.008875 -0.034284 0.117141
0.000538 -0.019000 0.063497
0.003063 0.029566 0.081189
0.006660 0.003450 0.047797
-0.000609 0.006437 0.084674
-0.009229 -0.044352 0.122338
-0.002995 -0.014438 0.054836
0.001039 0.029935 0.096676
-0.021023 -0.065881 0.115100
-0.002595 -0.018869 0.080727
-0.002583 -0.007017 0.080085
-0.002707 0.008607 0.073802
0.003887 0.020551 0.088048
-0.000479 -0.023714 0.079267
-0.000741 -0.014445 0.055533
-0.010562 0.035475 0.100692
0.012640 0.019165 0.038081
-0.038525 -0.027526 0.115826
0.002292 0.024240 0.081937
-0.000342 -0.057251 0.113753
0.012045 0.014312 0.038985
0.000459 0.025116 0.076213
0.012621 0.018436 0.034710
0.007652 0.017327 0.056448
-0.001458 -0.018868 0.081080
-0.001627 -0.027980 0.079058
-0.004349 0.029964 0.100358
-0.008454 -0.033727 0.117392
-0.018187 -0.057003 0.115759
-0.009784 -0.020863 0.116552
-0.034099 0.022099 0.097990
0.002922 0.023688 0.068116
0.002097 0.020012 0.080963
0.003510 -0.002915 0.056135
0.007605 0.017735 0.056522
-0.005261 -0.016165 0.105072
0.000795 0.030204 0.077417
-0.011618 -0.014043 0.084319
-0.006121 0.031444 0.101197
-0.003035 -0.008901 0.080607
0.003461 0.029163 0.080156
0.013549 0.019167 0.033018
-0.014486 -0.005608 0.090598
0.008872 0.018813 0.028284
-0.031310 -0.032311 0.113821
0.011509 0.019273 0.024925
-0.010319 -0.023588 0.116867
0.001833 -0.030925 0.077356
-0.000544 -0.018671 0.079268
-0.005825 0.013314 0.071715
-0.038602 -0.028628 0.116633
-0.002469 -0.007522 0.082150
-0.009146 -0.029457 0.090306
0.004871 0.020933 0.088436
0.012221 0.006035 0.056493
-0.027677 -0.028805 0.079358
0.000269 0.028495 0.092919
-0.012177 -0.047024 0.091984
-0.022454 -0.071006 0.115686
0.005939 0.003033 0.048552
-0.025370 0.004446 0.071224
0.002901 0.025881 0.081411
-0.011125 0.033491 0.095813
-0.021465 -0.066264 0.114880
-0.006624 0.000045 0.087842
0.001277 0.029739 0.077466
0.004726 0.029446 0.080609
0.004576 -0.003934 0.077625
0.004220 0.018432 0.081280
-0.001086 -0.015140 0.056345
-0.004947 -0.007812 0.080250
0.002024 -0.003437 0.058769
0.009433 0.004048 0.037027
-0.013264 -0.050297 0.116596
-0.004247 -0.014031 0.055605
0.010612 0.004707 0.061053
0.007750 0.000104 0.075206
0.007743 0.018837 0.030078
-0.058347 -0.060930 0.118498
-0.012580 -0.034023 0.093600
-0.035441 -0.028553 0.117628
0.000743 -0.026893 0.078959
0.001220 0.022478 0.082293
0.000959 0.026487 0.083078
0.002523 -0.029255 0.077931
-0.025577 -0.026675 0.078331
-0.031577 0.005038 0.074773
0.007391 0.010178 0.058030
-0.034294 0.024686 0.098488
0.012845 0.018307 0.034752
0.001515 0.028800 0.082682
0.008893 0.002923 0.038754
-0.002383 -0.011562 0.082372
0.009779 0.001802 0.075132
0.012212 0.005829 0.056446
0.007298 -0.019149 0.073043
0.011891 -0.038572 0.102339
-0.013469 -0.016710 0.079962
0.000754 -0.019702 0.064481
-0.020630 -0.023595 0.080530
-0.007138 -0.015677 0.105665
0.012825 0.019448 0.023233
-0.022001 -0.065641 0.113779
0.011313 -0.040498 0.101744
-0.050500 -0.041579 0.120836
-0.001678 0.011294 0.069357
-0.004779 -0.009037 0.081106
0.002536 -0.031629 0.077422
-0.017670 -0.063860 0.114437
-0.008735 -0.040271 0.118028
-0.001935 0.001767 0.082184
-0.002815 -0.047201 0.115159
-0.003646 -0.031213 0.078803
0.013997 0.018037 0.041464
-0.033296 -0.067240 0.107795
-0.010818 0.034031 0.098163
0.005080 0.014773 0.042271
-0.000147 0.026724 0.082787
-0.030540 -0.028317 0.112784
-0.014452 -0.006720 0.091437
0.001139 0.015362 0.082868
-0.013728 -0.017106 0.080865
0.001323 -0.071764 0.116478
-0.002250 0.011261 0.069172
-0.004043 -0.017428 0.100901
-0.021727 -0.023162 0.078146
-0.002154 -0.011486 0.081391
-0.002626 -0.013317 0.079779
-0.033738 0.020987 0.096792
-0.005276 -0.016507 0.104994
0.007045 0.000905 0.076229
-0.034352 -0.023868 0.113633
0.012746 0.018223 0.035772
-0.030807 -0.039563 0.113478
-0.031487 -0.041537 0.113910
-0.011824 0.032058 0.093148
0.013394 0.019585 0.022370
-0.002045 0.006662 0.086415
-0.002863 0.002789 0.084256
-0.005274 -0.015865 0.057028
0.002542 -0.031504 0.077451
-0.028427 0.002616 0.073088
0.000648 0.021515 0.079769
0.010471 0.018976 0.026677
-0.010523 0.034888 0.103784
0.000184 0.026154 0.081697
-0.021761 -0.024307 0.080026
-0.002103 0.005844 0.081944
-0.024875 -0.026335 0.078623
0.001404 0.024049 0.082690
-0.060567 -0.066459 0.117684
-0.001344 -0.015363 0.056217
-0.001870 -0.015093 0.078561
-0.009233 -0.037816 0.117336
-0.030154 -0.033682 0.113883
-0.063291 -0.073907 0.115231
-0.002066 0.012118 0.066208
0.010227 0.026249 0.094451
0.002075 -0.028330 0.077992
-0.002858 0.019417 0.042952
-0.001507 0.013497 0.064541
0.005270 0.018118 0.076192
-0.021366 -0.024018 0.078073
0.001321 -0.027845 0.078932
-0.013280 0.025731 0.061398
0.008630 0.011380 0.053328
-0.005407 -0.016412 0.103905
0.011849 -0.029434 0.100025
-0.004341 0.019766 0.044707
0.006146 0.022389 0.089146
0.005634 0.022096 0.089993
-0.024139 0.001481 0.066689
-0.006744 0.000330 0.087866
-0.018993 -0.059762 0.115982
0.007223 0.014957 0.036561
0.010539 0.028571 0.114292
-0.001720 0.002767 0.085674
0.003498 0.019980 0.087804
-0.006496 -0.014971 0.108155
0.004077 -0.035993 0.080164
-0.012161 -0.020626 0.118005
-0.012252 -0.040551 0.095498
-0.017005 -0.064699 0.112324
0.002039 0.021137 0.081188
-0.002003 -0.012719 0.086516
0.013368 0.019015 0.028653
-0.008635 -0.043301 0.119542
-0.001317 -0.002165 0.084733
0.000837 0.026273 0.082994
-0.061692 -0.070210 0.116525
-0.007741 0.014021 0.074481
-0.032870 -0.049620 0.112804
-0.033614 0.023666 0.097410
-0.010081 -0.022627 0.117148
-0.000310 0.024151 0.080042
0.002258 -0.031857 0.074080
-0.031722 -0.042143 0.113707
-0.010168 0.033815 0.099387
0.000886 0.023799 0.070716
-0.025257 0.004433 0.071256
0.010653 0.027586 0.114114
-0.000967 -0.026194 0.078580
0.000478 -0.027243 0.078801
-0.004301 -0.009471 0.081161
0.000904 0.023895 0.072880
0.013151 -0.001154 0.086229
0.013389 0.019168 0.034037
0.000699 0.019777 0.078341
-0.008669 -0.034106 0.117243
0.007821 0.000325 0.041068
0.014176 -0.002499 0.086256
-0.000507 0.014486 0.081100
-0.062086 -0.075619 0.117372
-0.025160 0.004076 0.071209
-0.003545 -0.014864 0.055642
0.009015 0.017274 0.050445
-0.018747 -0.065712 0.112634
0.001877 0.019789 0.081916
0.000793 0.024091 0.079302
0.002303 -0.003756 0.056648
-0.004609 -0.044625 0.116228
0.001477 -0.028013 0.077875
0.001245 -0.029484 0.078555
-0.020417 -0.063246 0.114788
-0.028145 0.003027 0.071126
0.011159 -0.037010 0.101381
0.011150 0.017754 0.041590
0.008224 0.023901 0.093323
-0.059497 -0.065370 0.117183
-0.001346 -0.016437 0.081640
-0.020792 -0.020105 0.083373
0.000467 0.027577 0.088506
-0.008918 -0.030961 0.116776
0.002076 -0.002008 0.056956
-0.009026 -0.025254 0.115838
-0.008548 0.032281 0.101695
-0.004337 -0.007881 0.080424
0.012605 0.015285 0.036162
-0.008746 -0.027320 0.116548
-0.002738 -0.019239 0.080603
0.009040 0.018894 0.028354
0.004985 0.018324 0.079355
0.000332 0.011600 0.085012
-0.009876 -0.047963 0.118150
-0.002173 0.007055 0.077908
0.011387 -0.035560 0.101765
0.000120 0.012742 0.084124
-0.011677 -0.045476 0.091405
-0.000720 -0.026222 0.078651
-0.001671 0.012361 0.082418
-0.024052 0.003489 0.071426
-0.061027 -0.071254 0.116506
-0.001419 0.012915 0.083684
0.007545 -0.023653 0.073215
-0.010400 -0.050130 0.115382
-0.021397 -0.024695 0.077917
-0.002228 0.007402 0.080105
-0.002251 0.010043 0.072116
-0.002973 -0.046386 0.115286
0.012310 -0.026398 0.096548
0.001219 0.014986 0.081742
0.000878 0.023614 0.070673
0.000555 -0.008341 0.065806
0.012276 0.005753 0.056449
-0.008426 -0.024734 0.116137
-0.002368 -0.050243 0.114640
-0.005317 -0.009058 0.085211
0.011828 0.013882 0.039894
-0.000935 0.031345 0.100645
-0.006649 0.015515 0.076211
0.000659 0.021187 0.078633
0.000161 0.010513 0.084724
-0.033522 -0.067232 0.106658
0.006571 0.018891 0.031864
0.000756 -0.029302 0.078442
-0.006950 -0.043960 0.115646
-0.010960 0.035212 0.099443
-0.035340 0.028201 0.099993
-0.034255 0.023263 0.097124
-0.001549 0.012687 0.083595
-0.000714 -0.026096 0.078680
0.002492 -0.034486 0.078929
-0.008240 -0.038276 0.118613
-0.001746 -0.015150 0.056138
-0.018191 -0.021444 0.080682
-0.037066 -0.068239 0.108548
-0.020358 -0.019866 0.083559
0.001279 0.021334 0.082064
0.007137 0.017586 0.056345
0.001800 -0.029774 0.076526
-0.017538 -0.067353 0.111586
0.009838 0.027190 0.113776
-0.002863 -0.007847 0.079819
-0.001939 -0.026530 0.079275
0.005549 0.002583 0.049403
-0.005288 -0.017443 0.103719
-0.032032 -0.048848 0.112161
-0.002460 0.003523 0.083470
0.008088 0.015761 0.034865
-0.008848 -0.015918 0.112566
-0.015298 -0.017132 0.085717
-0.012558 -0.048294 0.091592
0.011588 0.019208 0.024936
0.001756 -0.033336 0.075743
-0.002122 -0.016179 0.080386
0.010198 0.025609 0.094304
0.000007 0.012876 0.084118
-0.002572 -0.031165 0.080215
0.000271 -0.009177 0.066606
0.008139 0.010764 0.055181
-0.000323 0.013642 0.083112
-0.002387 -0.034112 0.082843
-0.012607 -0.019568 0.115957
0.010288 0.024827 0.094163
-0.007636 0.014009 0.074511
-0.001202 -0.000652 0.081889
0.000505 0.007522 0.084184
0.001349 -0.066004 0.115593
-0.021031 -0.022559 0.078492
0.003037 -0.034057 0.077053
0.001919 0.020927 0.081106
0.013150 0.019240 0.036117
-0.032679 0.027047 0.098430
-0.000810 -0.056525 0.114834
-0.002180 0.013847 0.065477
-0.001660 -0.015076 0.056181
-0.010905 -0.048057 0.117811
-0.008658 -0.042945 0.117474
-0.002633 -0.014235 0.081717
0.000055 0.025721 0.081564
-0.000366 0.009587 0.084361
-0.019350 0.026601 0.088568
-0.053575 -0.047420 0.119690
0.014304 0.017792 0.042576
0.000533 0.014725 0.082543
-0.011821 -0.002884 0.089875
0.011588 0.004966 0.059273
-0.011218 0.032668 0.094537
0.013401 0.019580 0.022371
-0.059320 -0.061543 0.118064
-0.010884 -0.023871 0.115561
0.001686 0.030123 0.083021
-0.009100 -0.016650 0.113399
-0.009710 -0.001195 0.088756
-0.002103 0.030471 0.100094
-0.016658 -0.069737 0.112412
0.000600 0.016326 0.081840
-0.051670 -0.042146 0.120351
0.012864 0.018621 0.033756
-0.001906 -0.000204 0.081768
0.000941 0.015647 0.083937
-0.035836 -0.028040 0.116548
0.009025 0.011514 0.051342
0.009702 0.001691 0.076154
-0.005593 0.001860 0.086416
-0.003785 -0.015739 0.056448
0.008830 0.001876 0.039577
0.007140 -0.020231 0.072760
0.000448 -0.009942 0.068634
0.009682 0.001917 0.075127
0.000873 -0.028932 0.076421
-0.008221 -0.032159 0.090009
-0.031344 -0.033449 0.114633
0.000987 -0.065143 0.115666
-0.029752 0.004824 0.073154
-0.026924 0.003008 0.069363
-0.002307 -0.012102 0.081210
-0.007954 -0.013790 0.111165
0.000402 0.007902 0.084235
-0.004337 -0.014188 0.055543
-0.001047 0.010525 0.084352
0.000020 0.028653 0.092877
-0.008999 0.032033 0.101502
-0.017227 -0.068620 0.112477
-0.028880 0.004079 0.072195
0.012873 0.018356 0.034771
-0.002555 -0.017066 0.058680
-0.016024 -0.055333 0.116790
0.011515 0.004974 0.059252
0.001955 -0.003183 0.058802
0.010193 0.017615 0.046608
0.002162 0.023807 0.081803
0.007042 -0.001473 0.075714
0.000883 -0.033791 0.078580
-0.002330 -0.021342 0.080275
-0.001771 -0.014717 0.081880
0.006374 0.018743 0.031771
0.013792 -0.000265 0.083413
-0.002202 -0.002194 0.084452
-0.011120 -0.002962 0.090075
0.003735 0.001193 0.052817
-0.063263 -0.080162 0.116026
-0.019512 -0.023162 0.080971
-0.002691 0.029963 0.099802
0.009092 0.018939 0.028380
-0.018811 -0.019885 0.081896
0.011859 0.004488 0.059254
-0.002057 0.006560 0.081044
-0.032348 0.025421 0.097112
0.000757 -0.033777 0.078545
0.003001 0.030378 0.082414
-0.014918 -0.015848 0.083975
0.010237 0.003061 0.066994
-0.004784 -0.009278 0.086398
0.007310 0.015417 0.036687
0.013396 0.018997 0.028658
-0.000278 -0.030416 0.080019
-0.008851 -0.038413 0.118394
-0.004095 -0.014299 0.055594
-0.013686 0.026043 0.060270
-0.000567 -0.001398 0.084062
0.009124 0.031310 0.109100
-0.030961 -0.042886 0.112713
0.002972 -0.034955 0.080045
0.003921 0.019421 0.083538
-0.000572 0.010349 0.084461
0.010523 0.026939 0.116072
0.004999 0.014916 0.042277
0.007506 0.024753 0.093285
0.004953 0.019652 0.083908
-0.036948 0.021975 0.100287
0.001206 0.029415 0.083788
0.001633 -0.027282 0.078082
-0.000694 0.001951 0.083678
0.008052 0.015616 0.034823
-0.024046 0.001300 0.067748
-0.011145 0.033074 0.095717
-0.007116 -0.010132 0.081214
-0.008800 -0.044186 0.122507
-0.002347 -0.012267 0.084369
-0.002614 -0.031068 0.079154
-0.005820 0.013416 0.071739
-0.002607 0.005439 0.085977
0.000791 0.020271 0.080614
-0.009883 -0.029853 0.091061
-0.005214 -0.021475 0.083628
-0.000100 0.004883 0.083427
-0.000973 -0.026320 0.078551
0.009658 0.017266 0.045298
0.001450 0.030162 0.096853
0.009504 0.001926 0.076143
0.009395 0.025622 0.092989
-0.006099 -0.009988 0.081560
-0.009499 -0.039365 0.117987
0.001070 -0.005294 0.080521
-0.002422 0.006704 0.086307
-0.003106 -0.017154 0.096975
0.011267 0.017780 0.041632
-0.021099 -0.024325 0.075951
0.002791 -0.033491 0.079237
-0.034054 0.020864 0.096667
0.001699 -0.031160 0.077264
-0.000655 0.031313 0.100725
0.012159 -0.029468 0.100114
-0.005069 -0.021219 0.083729
-0.020792 -0.024136 0.080363
0.000833 -0.029789 0.076223
-0.009054 -0.025838 0.115704
-0.004331 -0.007756 0.080453
0.010219 0.019069 0.026620
-0.008760 -0.011591 0.081458
-0.004866 -0.022603 0.083493
-0.011487 0.032699 0.094460
-0.003748 0.002609 0.085011
-0.028258 -0.029170 0.079099
-0.024719 -0.025419 0.086352
-0.004110 -0.008281 0.080408
-0.036579 -0.026434 0.115596
-0.008567 0.031406 0.095086
0.000832 0.029636 0.076237
0.005136 0.015035 0.042345
0.013371 0.019165 0.037238
-0.000413 0.024273 0.080037
-0.030332 -0.028138 0.112888
-0.008489 -0.025966 0.116920
0.005501 0.021861 0.089900
0.000664 0.028881 0.081366
-0.009966 -0.032511 0.091530
-0.000589 0.001564 0.083627
-0.022353 -0.068818 0.116191
-0.000569 -0.026941 0.079611
0.000123 0.025679 0.079438
-0.018005 -0.061159 0.115986
0.002292 -0.029583 0.076720
0.007392 -0.003254 0.073300
-0.010016 0.033080 0.098206
0.000620 0.014128 0.082441
0.000422 0.020673 0.078449
-0.021409 -0.023626 0.077075
-0.000964 -0.013651 0.082361
-0.013336 -0.005737 0.090926
0.010437 0.025325 0.094317
-0.021039 -0.019359 0.083457
0.001706 0.023708 0.070950
-0.001792 0.002074 0.083364
0.010838 0.001348 0.078570
-0.011089 -0.013007 0.081500
0.006573 -0.026697 0.075463
0.001368 0.023257 0.082507
0.002924 0.030767 0.083543
-0.004221 -0.010328 0.082069
-0.000101 0.019144 0.039472
0.002594 -0.035012 0.078847
