ply
format ascii 1.0
element vertex 1654
property float x
property float y
property float z
end_header
-0.013568 0.000803 0.060146
-0.023786 -0.037814 0.109562
0.000859 -0.011877 0.097710
0.022821 0.014522 0.118155
-0.004579 -0.047406 0.102086
0.000754 0.010274 0.104099
-0.000143 -0.009399 0.100008
0.003246 -0.003463 0.100567
0.031972 -0.065255 0.125541
-0.005532 0.024831 0.106794
-0.001714 0.006279 0.105738
0.022917 -0.004977 0.088913
0.012271 -0.002724 0.096426
-0.006829 0.030323 0.113444
0.011757 -0.002677 0.098455
-0.017397 0.002007 0.111659
-0.012328 0.002173 0.110560
0.025293 -0.029555 0.115411
-0.000525 0.019486 0.103097
0.001239 0.011567 0.103220
-0.001756 0.017144 0.102874
-0.003667 -0.068477 0.126978
0.000748 -0.013964 0.096484
0.001238 0.011724 0.103237
-0.001745 0.015746 0.102725
0.001446 0.003598 0.103372
0.017661 -0.039703 0.128577
0.013001 0.035388 0.101482
0.000017 0.006210 0.102675
0.005701 -0.033664 0.098298
0.005114 -0.010471 0.097767
-0.011371 0.032549 0.102715
0.026020 0.002853 0.094711
-0.004209 -0.039737 0.097866
0.003862 -0.027549 0.094967
0.003563 -0.005562 0.099331
-0.023696 0.030607 0.102776
0.002203 -0.026967 0.095065
-0.005253 -0.046912 0.102153
-0.013827 -0.021996 0.104997
0.000519 -0.010809 0.098837
0.005026 -0.038353 0.094795
0.000192 0.010508 0.026681
0.009736 0.010289 0.135088
0.032588 -0.060714 0.126012
-0.013495 0.011520 0.061287
0.012503 0.011587 0.109013
-0.001030 0.018776 0.104039
-0.006464 0.035487 0.109963
0.021574 0.010441 0.110705
0.009494 0.018428 0.076613
0.005451 -0.032682 0.080302
0.001267 -0.010006 0.099913
0.010380 -0.009330 0.098781
-0.002401 0.003415 0.058170
-0.004548 0.006823 0.092781
-0.019129 -0.024768 0.100793
-0.014473 0.025869 0.104082
-0.003979 0.035512 0.109912
-0.026965 -0.037842 0.110634
0.012291 -0.005175 0.136401
-0.003098 -0.064018 0.124423
-0.004136 -0.038172 0.097025
0.006307 -0.034076 0.082147
-0.004351 -0.011878 0.094805
0.021472 0.001101 0.085570
0.001650 -0.000534 0.101921
0.004191 0.015844 0.065388
-0.013930 0.009770 0.068152
0.014191 -0.030709 0.132630
-0.002085 -0.039447 0.124004
0.024826 0.004532 0.097934
-0.000237 0.025877 0.113832
0.017514 -0.008286 0.095719
0.023561 0.015458 0.118239
-0.015907 -0.032141 0.123072
-0.002207 0.006600 0.105783
0.026238 0.014009 0.119032
-0.005415 0.038425 0.111259
0.003291 -0.009209 0.099954
0.009035 0.018636 0.074634
0.003023 -0.016335 0.096182
-0.020410 -0.024622 0.100836
-0.004292 -0.038174 0.097029
0.003222 0.004091 0.088297
0.002457 -0.020979 0.095698
0.024566 0.001847 0.092623
-0.018941 0.031801 0.103805
0.005057 0.007071 0.079522
0.002460 -0.020847 0.094707
-0.013692 -0.023005 0.107904
-0.000788 -0.042449 0.092473
-0.019302 -0.027612 0.106529
-0.021673 -0.025908 0.104750
-0.006145 0.036973 0.110115
0.013611 -0.008223 0.098829
-0.003021 0.010072 0.060905
-0.004804 -0.054939 0.124423
0.022319 0.009200 0.111563
-0.006601 0.027074 0.111080
-0.012314 -0.022599 0.106912
0.017670 -0.040782 0.128462
-0.017041 0.001313 0.111577
0.013788 -0.007698 0.096869
0.016100 -0.016860 0.075723
0.032361 -0.059421 0.126155
-0.021215 -0.023765 0.091892
0.018405 0.012007 0.106918
0.025523 -0.041669 0.126185
-0.022780 0.030313 0.102724
-0.004522 0.030358 0.108368
-0.018630 0.031497 0.103766
0.004594 -0.041539 0.094465
0.016811 -0.039098 0.130672
0.001239 -0.028650 0.107983
-0.004749 0.038932 0.111299
-0.015530 0.029464 0.109517
-0.026377 -0.036367 0.111784
0.024829 0.004083 0.097886
0.020480 -0.017058 0.095725
0.029703 -0.052754 0.126924
-0.003712 0.006693 0.092749
0.005174 0.024252 0.118571
-0.010922 0.000019 0.069058
0.002780 -0.003779 0.100544
-0.020408 -0.024940 0.100802
0.005916 -0.020795 0.095643
0.023753 -0.005222 0.089875
0.025431 0.004089 0.097873
-0.011316 -0.001473 0.105120
-0.005428 0.023577 0.105652
-0.004957 -0.038355 0.118148
-0.004685 0.006683 0.092769
-0.003622 0.032220 0.109553
-0.011506 0.011024 0.057168
0.000862 -0.012332 0.097661
0.023698 0.001927 0.084603
-0.003956 -0.049045 0.121009
-0.009676 0.013770 0.132864
0.003550 -0.002373 0.100677
0.002244 0.004345 0.102428
-0.026122 -0.036769 0.109724
-0.004163 -0.048642 0.121057
-0.012688 0.027508 0.108241
-0.011306 0.000055 0.108300
-0.014760 -0.027293 0.122559
-0.021501 -0.044653 0.107777
0.018884 -0.026801 0.118862
-0.014523 0.026187 0.105122
-0.004469 -0.060865 0.125795
-0.004877 0.009340 0.087021
-0.002026 0.031740 0.104437
0.016071 -0.000515 0.070426
0.026819 -0.043778 0.125932
0.010716 0.005882 0.135603
0.001288 0.005279 0.102548
0.024722 -0.029561 0.115423
-0.000399 0.018939 0.104042
-0.004750 -0.052870 0.123636
0.000010 0.006995 0.102759
0.003929 0.014497 0.056197
-0.005834 0.008392 0.091970
-0.014236 0.002327 0.110618
0.003485 0.007345 0.102721
0.002777 -0.003468 0.100577
0.003003 0.007717 0.101765
0.005978 -0.028725 0.094796
0.013946 -0.015663 0.135246
0.015605 0.001831 0.071692
0.007152 -0.024117 0.090232
0.016473 -0.001200 0.070344
0.016574 0.013138 0.105066
0.016728 0.035436 0.100400
0.023272 -0.044239 0.134007
-0.002299 -0.013303 0.099638
-0.002373 0.006761 0.105804
-0.015480 0.003420 0.111768
-0.009161 -0.046311 0.120408
0.010587 0.002939 0.136298
0.002477 -0.027072 0.102089
0.000367 -0.011117 0.098808
-0.001127 -0.043209 0.126600
0.016521 -0.004007 0.094185
0.012696 -0.009613 0.098700
-0.004282 0.031883 0.109531
0.015411 -0.030623 0.133619
-0.003050 0.028121 0.111115
0.003710 0.004477 0.086316
-0.002306 -0.010836 0.094872
0.031055 -0.059002 0.126228
-0.011140 -0.022636 0.104870
0.005564 -0.029104 0.095770
0.000235 -0.001491 0.101849
0.008769 -0.020018 0.095664
-0.003459 0.007853 0.061684
-0.002758 -0.010782 0.085835
0.003249 -0.004798 0.099419
0.026522 0.034517 0.099083
-0.014920 0.011754 0.064361
-0.008264 -0.044154 0.119613
-0.015082 0.000251 0.063138
-0.013693 -0.023572 0.108850
0.019281 -0.027383 0.118792
-0.012174 0.031484 0.104630
0.016341 -0.004354 0.093146
0.017251 -0.038874 0.130687
0.023000 -0.018323 0.096541
-0.001617 0.019319 0.103103
-0.019438 0.031559 0.102785
0.010160 0.012036 0.135266
-0.006543 -0.036225 0.118410
0.013344 0.003979 0.064929
0.014174 -0.018618 0.095696
-0.000090 0.003803 0.101415
-0.001607 -0.030198 0.112910
-0.004880 0.013791 0.069390
-0.001089 -0.016140 0.097298
-0.021074 -0.023479 0.091920
0.002355 -0.027115 0.095046
0.026644 -0.031814 0.115141
-0.005267 0.023419 0.105632
-0.011606 0.003236 0.070422
-0.003539 0.003841 0.108535
-0.013437 0.010178 0.069190
-0.023878 -0.039251 0.110416
0.017324 -0.017389 0.095758
-0.011640 -0.022369 0.105916
0.032482 -0.047856 0.113303
-0.003933 0.010447 0.063983
-0.012653 -0.022822 0.107901
0.001387 -0.018746 0.095960
0.007043 -0.009793 0.099810
0.022598 -0.033811 0.123063
-0.005757 -0.023718 0.099608
0.003876 0.016169 0.066435
-0.020838 -0.024055 0.095877
0.002104 -0.015199 0.097329
0.001861 -0.006117 0.100314
-0.001497 -0.040128 0.124925
-0.020694 -0.046992 0.106504
0.003164 0.007097 0.101696
0.024140 0.002263 0.092677
0.002432 -0.018226 0.096999
0.016392 -0.000155 0.069451
-0.013848 0.025876 0.104069
0.025088 -0.040613 0.126307
-0.007882 0.032036 0.113649
0.029817 0.012028 0.114719
-0.015214 0.011777 0.067388
0.004937 -0.021973 0.092521
-0.000525 -0.025709 0.099282
-0.022674 -0.042788 0.109007
0.009518 0.010069 0.135070
-0.010005 -0.001282 0.066887
-0.020198 -0.024671 0.097809
-0.010217 0.010598 0.052065
-0.006934 0.008790 0.092037
0.001150 0.002762 0.102283
0.001418 -0.009383 0.099976
-0.003316 -0.063384 0.124496
0.012321 0.012772 0.106126
0.019768 0.013610 0.082917
-0.004752 0.029115 0.111258
-0.007407 -0.050701 0.120908
0.001268 -0.010162 0.099896
0.000629 0.018050 0.080789
0.005593 -0.037258 0.093894
-0.018656 -0.025878 0.104688
-0.021141 -0.045354 0.107694
0.003029 -0.017083 0.096102
0.016360 -0.038004 0.130799
-0.003328 0.018526 0.103056
-0.018214 0.030965 0.102695
0.006273 -0.035907 0.100059
0.009962 0.009420 0.134991
-0.002196 0.013567 0.102502
-0.009866 -0.022767 0.100805
0.007766 -0.010430 0.098720
0.023172 -0.026167 0.115819
0.003196 0.014184 0.057185
-0.023014 -0.032338 0.109123
-0.007144 -0.046090 0.120388
-0.004456 0.032870 0.109640
-0.013009 0.000578 0.109399
0.004435 -0.023803 0.095354
-0.004293 0.033202 0.109672
-0.011311 0.000729 0.108372
-0.000102 -0.030146 0.096788
0.001912 0.006386 0.102653
-0.000872 -0.039706 0.124956
-0.006807 -0.039461 0.119076
0.004603 -0.026045 0.095111
0.024221 0.001222 0.089546
0.000790 -0.008924 0.100038
0.008294 0.013531 0.133454
0.011408 -0.002722 0.099463
-0.001770 0.007191 0.106843
0.027853 0.005113 0.099942
-0.009994 -0.000553 0.067971
-0.026071 -0.036394 0.110769
0.004095 -0.036089 0.095057
-0.021561 -0.023863 0.093901
-0.007613 -0.050500 0.120934
-0.004298 0.009015 0.083956
0.000754 0.012977 0.103381
0.010116 0.011513 0.093968
-0.002102 0.007188 0.106849
0.031968 -0.042732 0.114867
-0.006055 0.032013 0.112601
-0.002227 0.007973 0.034510
-0.016469 -0.035224 0.123762
-0.001862 -0.002958 0.102744
0.021069 0.000525 0.084511
0.000595 -0.013666 0.096519
-0.005556 0.007986 0.091921
0.024399 0.005765 0.096063
-0.006530 0.035877 0.109000
0.000895 0.016737 0.079637
0.004885 -0.039718 0.094653
-0.001500 0.018299 0.103998
0.008467 -0.019872 0.095686
-0.002786 -0.011275 0.104895
-0.003359 0.007240 0.105876
-0.009536 0.031421 0.101549
-0.006157 0.038621 0.110291
0.006816 -0.020487 0.095656
-0.000232 0.025180 0.113758
0.016307 0.035870 0.101462
-0.000913 -0.010805 0.099875
0.021234 -0.017200 0.095693
-0.006402 0.032521 0.112663
0.000640 0.025712 0.113795
0.004076 -0.009823 0.099871
-0.006703 -0.024042 0.099594
-0.002043 0.013879 0.102532
0.021960 -0.043099 0.133151
-0.020805 0.031091 0.102764
0.025144 0.002411 0.093677
-0.025010 -0.033324 0.111073
0.004817 -0.031082 0.095575
-0.003815 -0.061928 0.125668
0.031161 0.019029 0.124490
-0.012192 -0.028252 0.117371
0.021358 -0.033005 0.123176
-0.010626 0.028389 0.113320
0.025728 -0.040607 0.126294
-0.004012 -0.002883 0.105817
-0.019880 -0.029444 0.107352
-0.006816 0.037405 0.107157
-0.000336 0.015294 0.102646
-0.008418 -0.051724 0.120821
-0.009354 0.013783 0.133864
0.033146 0.018458 0.124386
0.003594 -0.030488 0.095665
0.028379 -0.049960 0.127250
0.013626 -0.044011 0.131223
0.004173 0.005230 0.072303
-0.002654 -0.010547 0.087869
0.000553 0.017292 0.079704
0.005143 -0.010303 0.098791
-0.004513 -0.044908 0.101345
-0.005889 0.032696 0.112670
0.003542 -0.001441 0.100777
0.019287 0.013725 0.082940
-0.022132 -0.043317 0.108939
-0.019588 0.031254 0.102755
-0.002875 0.024398 0.105684
-0.014247 0.000676 0.063165
0.008649 0.017359 0.076518
0.001839 -0.018891 0.095935
0.009907 0.019926 0.130077
0.002865 -0.015439 0.096281
0.009585 0.009386 0.136001
0.007169 0.019425 0.129077
0.001879 -0.050672 0.129762
0.001297 0.002165 0.103222
0.009746 0.009020 0.098740
0.000903 0.009279 0.104995
-0.021500 -0.044829 0.107758
0.006516 0.023269 0.119442
-0.004716 -0.034572 0.117540
0.007083 -0.030093 0.077525
-0.022865 -0.041188 0.109182
0.032432 -0.063760 0.126696
0.002484 -0.005956 0.100318
-0.002884 0.025511 0.105803
-0.025828 -0.036361 0.111773
0.001952 0.001198 0.102099
-0.003827 0.010991 0.065044
0.026941 0.011184 0.110668
-0.003204 0.025508 0.105810
-0.011424 0.003423 0.069432
0.031804 -0.046368 0.114482
-0.011224 0.001662 0.068234
0.002246 -0.013201 0.096533
0.014171 -0.018318 0.095728
0.012401 0.035082 0.101462
-0.018174 -0.024122 0.100841
-0.001237 -0.016596 0.097252
-0.002457 -0.010255 0.094937
0.019742 0.001558 0.081632
0.025341 0.035527 0.099217
-0.008028 -0.033252 0.117753
-0.009792 -0.002121 0.107029
0.004859 -0.033318 0.096342
0.024679 0.004082 0.097889
-0.002785 0.020959 0.104310
-0.011207 0.027530 0.109217
0.004148 -0.025601 0.095169
0.012557 -0.007669 0.097905
0.007027 -0.028266 0.094822
0.006143 0.006508 0.078432
0.021101 0.001821 0.086660
-0.002020 0.003596 0.055163
0.005354 0.008139 0.097736
0.006031 0.006396 0.078423
0.014070 -0.043785 0.131238
0.004710 -0.033934 0.096279
-0.003861 0.008511 0.065787
-0.004609 -0.041999 0.118757
0.000528 0.021778 0.104325
0.009963 0.009203 0.134968
0.001818 -0.028037 0.103007
0.002569 0.017510 0.076666
0.001493 -0.015053 0.097357
-0.007834 -0.048273 0.121176
-0.008110 -0.051721 0.119808
0.002879 0.017742 0.075678
0.004131 -0.023357 0.095408
-0.003451 -0.044072 0.100405
0.015225 -0.034061 0.131244
-0.015213 0.011688 0.067378
0.005061 -0.042747 0.094326
0.005785 -0.042643 0.093315
-0.012763 0.030788 0.103563
0.004356 -0.030480 0.095650
-0.002534 0.016825 0.102857
-0.005088 0.005680 0.087641
0.004287 0.006166 0.076424
0.008577 0.012467 0.096115
0.015988 -0.016861 0.075726
0.009370 0.008505 0.135912
0.007132 0.016618 0.068424
0.026941 0.003356 0.097762
0.009918 -0.025315 0.070932
0.024106 0.005762 0.096069
0.003979 -0.023209 0.095428
0.004398 -0.019015 0.095866
-0.010948 0.002222 0.068287
0.008823 0.010311 0.091857
-0.024244 -0.038715 0.110481
0.000389 -0.001018 0.101896
0.000831 -0.011266 0.098782
0.026768 0.011182 0.110672
0.023659 0.000058 0.088429
-0.002374 0.016361 0.102804
0.013599 -0.009417 0.099707
0.000273 0.013915 0.103492
-0.001586 0.015437 0.102689
0.016214 -0.017082 0.075697
0.028241 0.003538 0.115860
0.024026 -0.005083 0.089884
-0.005121 -0.046672 0.120282
0.004969 0.023405 0.117479
-0.003891 -0.040356 0.099805
-0.014246 0.011260 0.064294
0.003826 0.012360 0.052953
0.013170 0.013693 0.099164
0.005512 -0.041985 0.094397
0.001991 -0.027728 0.102030
0.014031 -0.014327 0.136393
-0.010797 0.000060 0.108290
0.025296 0.002846 0.094726
0.004240 -0.035179 0.095151
0.003687 0.014400 0.057197
0.007301 -0.010128 0.098763
0.009075 -0.028195 0.077684
0.008611 -0.010554 0.099694
0.013326 -0.022598 0.134520
0.012348 -0.019945 0.096600
0.012254 -0.021347 0.132665
0.003654 0.017188 0.072584
0.012863 -0.020815 0.134720
-0.001925 0.018850 0.103060
0.031292 -0.061591 0.125946
0.000292 -0.013370 0.096557
0.028717 -0.037328 0.116520
0.010534 -0.009328 0.098778
-0.014484 0.010492 0.068241
0.009062 -0.019118 0.095753
0.001001 0.017520 0.079719
-0.004557 0.011082 0.067082
0.021324 -0.018340 0.096576
-0.012314 -0.022881 0.105876
-0.018931 -0.048368 0.106318
0.009660 -0.026758 0.074807
0.000643 -0.006972 0.099244
0.001979 -0.026262 0.102187
0.026241 -0.028977 0.115452
-0.008237 -0.002274 0.107985
0.028593 -0.049526 0.127292
-0.008146 0.010832 0.048021
-0.003236 -0.036878 0.122292
0.031090 -0.063536 0.125743
0.012818 -0.018332 0.095756
-0.005668 -0.048822 0.122076
0.003871 0.015628 0.063360
0.008795 0.017520 0.131857
0.001233 0.010438 0.104106
-0.001393 0.010624 0.102171
-0.000702 -0.021011 0.095764
0.026619 -0.046000 0.126705
0.023805 -0.040202 0.126379
-0.024243 -0.038895 0.110462
0.009295 0.009015 0.098749
-0.016166 -0.022853 0.104956
0.000282 0.012658 0.103357
0.001229 0.017076 0.079666
0.003509 -0.020819 0.095693
-0.010102 -0.052818 0.106658
-0.006651 0.029808 0.113385
-0.027805 0.029960 0.102796
0.005620 0.027425 0.089728
-0.025896 -0.035672 0.110842
0.016467 0.034674 0.101331
0.005451 0.026702 0.088649
0.000232 -0.001177 0.101883
0.000629 -0.008304 0.100108
0.016396 -0.017309 0.094781
0.003823 0.017493 0.071607
-0.014527 -0.031307 0.122125
-0.004744 0.038265 0.111228
-0.003523 0.005005 0.095582
-0.012741 -0.026731 0.118551
0.020633 -0.017356 0.095690
-0.019434 -0.000869 0.108378
0.006091 0.033972 0.101481
-0.006271 -0.034394 0.117593
-0.009813 0.011505 0.126590
0.006390 0.034274 0.101507
-0.007880 0.031864 0.113631
0.005028 -0.026287 0.094070
-0.006089 0.008329 0.092975
-0.000154 0.010188 0.027660
-0.003413 0.005362 0.106683
0.014177 0.009251 0.104704
0.008783 0.013110 0.134404
0.003749 -0.030789 0.095630
0.016239 -0.005018 0.094084
0.006263 -0.009956 0.099809
-0.008515 -0.004813 0.066478
-0.009798 -0.001758 0.067838
0.007448 -0.024371 0.095228
0.024835 0.006353 0.096116
-0.019584 0.030800 0.102707
0.001119 0.006692 0.102703
0.017507 -0.007400 0.095814
-0.007787 0.010605 0.122426
0.015618 -0.000453 0.069437
-0.002533 -0.023401 0.098566
-0.005396 0.015675 0.073625
0.003702 -0.023358 0.097429
-0.008917 -0.001944 0.108035
0.008505 -0.027653 0.076749
0.029105 -0.037325 0.116512
-0.009078 0.010686 0.050037
0.009280 0.007802 0.096608
-0.006075 -0.023407 0.099649
0.008938 0.022219 0.128331
0.024859 0.002266 0.093667
-0.013287 0.009322 0.068090
0.009573 0.017903 0.130875
0.015874 -0.016638 0.075752
-0.000227 -0.019101 0.094951
-0.011508 0.001907 0.069272
0.021649 -0.026182 0.115850
0.001263 -0.009540 0.099962
-0.014184 0.010264 0.069216
0.016139 -0.038006 0.130803
-0.020082 0.030989 0.099720
-0.025644 -0.036541 0.111750
0.013852 -0.032427 0.133460
0.031699 -0.058132 0.126307
-0.004115 -0.036884 0.117281
-0.003160 0.007896 0.060676
-0.020047 -0.030308 0.107263
-0.011834 0.012895 0.129800
0.000708 -0.012030 0.097697
-0.004937 0.030888 0.109439
-0.012582 -0.027490 0.117461
-0.004745 0.012237 0.067209
-0.017498 -0.024033 0.104860
0.030177 0.012212 0.114731
0.015412 0.034813 0.101368
-0.009431 -0.001275 0.108118
-0.003274 -0.035289 0.119444
-0.006658 -0.003404 0.105819
0.024455 -0.041468 0.126230
0.009938 0.012470 0.135317
0.008625 -0.025623 0.075957
0.011395 0.005510 0.059099
0.005326 0.026320 0.088611
0.001004 0.023973 0.113602
-0.000821 0.017463 0.102888
0.001018 -0.029041 0.101911
0.002799 -0.026162 0.094132
-0.012156 0.001097 0.109436
-0.001830 0.020025 0.104189
-0.005813 0.036976 0.110108
0.001670 0.018197 0.079776
-0.001996 0.021124 0.104310
-0.012331 -0.029431 0.118254
0.009217 0.013114 0.134395
-0.010641 0.000685 0.069123
0.029840 -0.041223 0.115074
0.008566 0.013108 0.134409
-0.005322 0.014565 0.070488
0.025289 -0.028987 0.115472
-0.007192 -0.040843 0.118937
0.026695 0.003803 0.114916
0.024386 0.001466 0.090575
-0.001678 -0.011594 0.096789
-0.001609 0.007687 0.106892
0.031714 -0.060075 0.126099
0.006869 -0.032088 0.079329
-0.014667 0.011590 0.064338
0.006050 -0.010607 0.094715
-0.001976 -0.014698 0.099483
-0.001951 -0.017959 0.099134
-0.000073 -0.048517 0.128023
0.008837 -0.027962 0.077714
0.006973 -0.036637 0.100971
0.000505 0.004328 0.102464
0.005601 -0.009684 0.098847
0.029818 -0.038353 0.115380
0.007763 -0.009969 0.098769
0.006438 -0.030913 0.078458
0.015763 -0.016863 0.075730
0.009350 0.016110 0.133706
0.006541 0.034126 0.101488
0.004923 -0.028436 0.094849
0.005038 -0.033110 0.097366
0.031484 -0.058350 0.126288
-0.004214 -0.039109 0.097933
0.022358 -0.044248 0.134026
0.003654 -0.020070 0.095769
0.001239 0.007672 0.104817
0.002895 0.001994 0.102163
-0.011242 0.003982 0.068482
0.005798 0.004998 0.082302
0.004914 -0.027389 0.094961
-0.003359 0.024870 0.105745
-0.003103 -0.063381 0.124491
0.021042 -0.029530 0.119530
0.027235 0.004900 0.115021
0.013419 -0.018326 0.095743
0.002931 -0.003156 0.100607
0.004423 0.006819 0.077497
0.009060 0.009062 0.097754
-0.004319 0.025311 0.107825
-0.013489 0.000726 0.060136
-0.000677 0.014063 0.103528
-0.000648 0.005487 0.103619
-0.001270 0.014974 0.102632
0.006939 -0.033037 0.080232
0.008706 0.015890 0.133696
0.003050 0.002310 0.102193
0.000281 0.012815 0.103374
0.003131 0.002614 0.092165
-0.009852 0.010784 0.052076
-0.004706 -0.058085 0.126097
-0.018814 -0.048502 0.107308
-0.009581 0.001061 0.066122
-0.013616 -0.029877 0.120246
0.009609 0.023047 0.126393
-0.025523 0.030438 0.102797
-0.009533 0.031122 0.101517
0.013615 0.034519 0.100370
-0.000914 -0.043207 0.126596
0.010639 0.024425 0.124506
-0.002134 0.028302 0.113126
-0.011715 -0.026912 0.119515
0.033329 0.018938 0.122421
-0.002208 0.015120 0.102668
0.007718 -0.024392 0.090191
-0.001105 -0.032475 0.098573
0.001013 -0.041576 0.091521
0.013882 -0.018812 0.094675
-0.004526 -0.045261 0.120420
0.003411 -0.027554 0.094976
0.000181 0.005425 0.102588
0.001965 -0.017018 0.097138
-0.016173 0.002368 0.111671
-0.024640 -0.034400 0.110950
0.014335 0.009735 0.104752
-0.001796 0.001944 0.058000
-0.007614 -0.036533 0.117394
0.001290 -0.010801 0.098821
0.002431 0.000574 0.102022
-0.019249 0.000725 0.110556
0.014490 -0.003452 0.094289
0.022565 0.000625 0.087507
-0.003919 0.008613 0.063787
-0.019280 -0.048546 0.106307
-0.020984 -0.024218 0.096868
0.010050 0.008574 0.098686
0.012647 0.012938 0.106136
0.033137 -0.048739 0.112189
0.000480 -0.005747 0.099378
-0.011704 0.027525 0.109227
-0.006940 0.027070 0.111087
-0.012977 0.009773 0.064107
-0.002018 0.001868 0.057996
-0.002052 0.015121 0.102665
-0.002041 0.006275 0.105745
0.009196 -0.028546 0.077644
0.002732 0.002816 0.103260
0.002549 -0.013497 0.096495
0.023727 -0.044007 0.134022
-0.002705 0.018687 0.103060
0.014210 -0.003963 0.095246
-0.006561 0.030985 0.112503
-0.002769 -0.030653 0.113892
0.015312 -0.031584 0.132512
-0.010298 0.031802 0.102612
0.008770 -0.011018 0.099641
0.001289 0.003279 0.103341
0.008450 0.010163 0.095872
0.017752 0.010847 0.106808
0.001859 -0.005807 0.100348
-0.010531 -0.001208 0.068918
0.025540 0.003708 0.113925
-0.002591 0.029014 0.106171
0.004372 0.005634 0.072342
0.015421 -0.006534 0.095952
-0.002668 -0.014412 0.100534
0.004913 -0.027239 0.094977
0.001951 -0.015200 0.097332
0.000232 0.010496 0.026679
-0.003487 0.018835 0.103092
-0.006228 -0.024037 0.099585
0.034153 -0.066528 0.125358
0.000804 0.003910 0.103419
-0.004718 0.012408 0.068233
0.004701 -0.019311 0.095828
-0.006071 -0.035165 0.117506
0.028008 0.004961 0.099922
-0.025703 -0.037290 0.110665
-0.008305 -0.052526 0.119727
0.016047 -0.040835 0.129498
0.026634 -0.047386 0.125551
0.006358 0.024686 0.120603
0.006331 0.023082 0.119427
0.006000 -0.041818 0.091387
0.002235 0.006001 0.101599
-0.022600 0.030564 0.106771
-0.002965 -0.067331 0.126079
-0.021176 -0.030094 0.108317
0.004696 0.025299 0.088515
-0.015034 0.029634 0.109525
-0.000997 0.014531 0.103585
0.005551 -0.034609 0.098201
-0.002435 0.029493 0.106218
-0.012266 0.011221 0.059217
-0.023875 -0.039611 0.110378
-0.026487 0.030191 0.103798
0.024144 -0.028619 0.115536
-0.002087 0.019625 0.103146
0.000365 0.002126 0.102232
0.010962 -0.007647 0.136166
-0.012534 0.027681 0.109262
-0.010100 -0.053170 0.106620
-0.002689 0.016668 0.102844
0.007008 -0.023698 0.090280
-0.003374 0.004517 0.108604
0.009667 -0.019411 0.095709
-0.002200 0.008087 0.034522
-0.010627 0.028561 0.113338
0.014372 0.012803 0.101055
-0.004341 0.006046 0.086658
0.003123 0.024717 0.116653
0.003679 0.024665 0.117641
0.022418 -0.027121 0.115733
0.023209 -0.038423 0.124570
0.001422 -0.009849 0.099926
-0.019739 -0.024206 0.097848
0.001429 -0.047951 0.129056
0.029818 0.011848 0.114700
0.001715 -0.007361 0.100185
0.011195 -0.003235 0.097401
-0.018678 -0.023537 0.102926
0.013826 0.008715 0.105660
0.022791 -0.026171 0.115827
0.003230 -0.001444 0.100783
-0.001008 0.009179 0.031595
-0.010608 0.032405 0.102683
-0.005972 0.008527 0.091988
-0.000644 -0.030473 0.111854
0.021570 -0.033821 0.123084
0.010017 -0.018407 0.094803
-0.002903 0.015770 0.103759
0.029510 -0.055779 0.126605
-0.014210 0.010495 0.068235
0.003079 -0.002067 0.100720
0.024266 -0.016935 0.094650
0.017170 -0.007433 0.094812
0.015871 -0.016303 0.075788
0.015181 -0.043331 0.131262
-0.005150 -0.038747 0.118110
-0.009861 0.010598 0.053063
0.011317 0.034139 0.102391
0.030851 -0.060732 0.126048
0.026336 0.010808 0.111647
-0.001051 -0.020988 0.096780
-0.003408 -0.066256 0.126203
0.018615 0.010300 0.108743
-0.010763 0.032706 0.102718
0.013491 0.009689 0.105771
0.022046 -0.028292 0.116623
0.014512 0.013734 0.102157
-0.003377 0.004854 0.108640
0.000099 -0.012188 0.097693
0.004375 0.005232 0.072299
0.016441 0.034104 0.100264
0.003161 -0.015521 0.095259
0.015562 0.001253 0.070626
-0.025715 -0.035670 0.110838
0.025580 -0.005873 0.090772
0.024460 -0.039719 0.125410
0.027248 0.003539 0.098781
0.005682 -0.029326 0.094738
-0.001569 0.008402 0.032530
-0.010542 0.011689 0.127631
-0.001923 0.025362 0.105766
0.017403 0.012171 0.105951
-0.003733 0.005674 0.094652
0.001402 0.010940 0.103150
0.000476 0.024316 0.113650
-0.004787 0.032867 0.109647
0.025316 -0.040972 0.125258
0.025336 0.036110 0.099279
-0.002721 0.007727 0.108932
0.027537 0.004110 0.097830
0.006736 -0.023289 0.093347
0.008827 0.009401 0.096789
0.027617 0.015543 0.101059
-0.004457 0.033035 0.109658
0.023876 0.001030 0.087522
-0.008752 -0.001437 0.108086
-0.002947 -0.011936 0.104828
0.002814 -0.028158 0.094925
0.014346 -0.003453 0.094292
-0.006084 -0.033426 0.117692
-0.004257 -0.003683 0.104731
0.009103 -0.028345 0.075656
0.008861 0.010063 0.135083
0.000325 -0.009394 0.099998
0.001831 -0.017843 0.096047
0.001345 -0.013359 0.096535
0.006404 -0.037551 0.085798
0.004932 -0.010331 0.096781
0.032142 -0.059207 0.126182
0.031938 -0.060937 0.126002
0.000131 0.015454 0.102653
-0.006648 0.008738 0.093031
0.003229 -0.000361 0.101905
-0.001109 0.007362 0.106846
-0.024888 -0.034264 0.109964
0.000930 -0.006903 0.100251
0.004152 -0.026050 0.095121
0.000192 0.010548 0.026685
0.014975 0.034024 0.102300
-0.002149 0.003480 0.059177
-0.014724 -0.031911 0.122065
0.002095 -0.013052 0.096552
-0.004090 0.011756 0.065132
0.004481 -0.010335 0.096790
0.003328 -0.034059 0.097302
0.028361 0.011508 0.112684
0.024030 -0.041684 0.126216
-0.018332 -0.024442 0.100810
0.010381 -0.009483 0.098764
0.030946 -0.046166 0.113517
-0.013592 0.010467 0.065201
-0.000402 -0.020858 0.095773
-0.017989 -0.025538 0.104710
0.009152 0.018107 0.130905
-0.009236 0.031574 0.101559
-0.006365 0.035715 0.108979
-0.004975 0.014068 0.069421
-0.012977 0.009690 0.064099
0.004253 -0.019764 0.095789
-0.008561 0.010211 0.122401
0.019263 0.001434 0.081629
0.000773 0.010619 0.103129
-0.006543 -0.046546 0.100208
0.013127 -0.008956 0.099767
0.023250 -0.016123 0.093753
-0.009688 0.031719 0.101584
0.001256 0.007415 0.103783
0.020130 0.013375 0.082884
-0.013832 0.001180 0.063209
0.026975 0.035687 0.100204
-0.002106 0.004712 0.098538
0.008796 0.034448 0.101473
-0.019742 -0.047196 0.105455
0.011193 -0.002936 0.097433
0.000565 -0.046783 0.128194
0.027950 -0.051123 0.126130
0.008412 -0.025206 0.075000
0.001696 -0.005032 0.100434
-0.005029 -0.023737 0.098585
0.013644 0.011156 0.105925
-0.001932 -0.032773 0.096548
0.027987 0.004264 0.097836
0.024577 -0.016985 0.093632
-0.002266 0.028381 0.106096
-0.010104 0.002909 0.056271
0.002664 -0.008905 0.100000
0.017622 -0.017087 0.095784
0.024888 -0.042312 0.126130
-0.003858 0.029225 0.108232
-0.009695 0.003246 0.055293
0.010917 -0.001837 0.136787
-0.010916 -0.054236 0.108536
0.002808 -0.007350 0.100162
-0.006490 -0.003732 0.105780
0.003328 -0.034714 0.096226
0.024095 0.014153 0.117082
0.008167 0.016673 0.131780
-0.017292 -0.035233 0.123779
-0.004978 0.006040 0.086671
-0.008758 -0.039249 0.117129
0.001040 -0.001000 0.100878
-0.006056 0.032183 0.112619
0.013870 0.002655 0.067794
0.000488 0.006529 0.102699
0.015529 -0.003803 0.095235
0.028240 0.003722 0.115879
0.026163 0.003143 0.094739
-0.005233 -0.054103 0.124521
0.032865 -0.046174 0.115486
-0.003973 -0.011554 0.093826
-0.003006 0.017286 0.102917
0.005926 0.005500 0.078329
0.024110 0.010154 0.109614
0.010693 -0.026003 0.071848
0.018875 -0.037069 0.126820
0.005261 -0.029410 0.095744
0.018602 -0.039017 0.127624
0.008124 0.022009 0.128326
0.023196 -0.036756 0.124748
0.024291 -0.026513 0.114752
-0.003183 -0.045389 0.101264
-0.004443 0.031223 0.109464
0.006655 -0.012935 0.094454
0.001292 0.002801 0.103290
0.001277 0.004710 0.103494
0.000928 -0.006593 0.100284
-0.026788 -0.037301 0.110688
0.022236 0.015604 0.117277
0.012878 -0.022826 0.134505
-0.006589 -0.047592 0.102109
0.031138 -0.046354 0.113492
0.000892 0.018672 0.083868
0.022794 -0.026549 0.115786
-0.008341 -0.047909 0.120220
0.025298 -0.030123 0.115351
-0.018509 -0.024187 0.102853
-0.004341 0.010986 0.065055
-0.001603 0.007028 0.106821
-0.008546 -0.047509 0.120267
0.007432 -0.029503 0.077581
0.007302 -0.024821 0.095183
0.002766 -0.001781 0.101763
0.015406 -0.029953 0.133690
0.021657 -0.027722 0.116692
-0.019768 -0.048100 0.108377
-0.003453 0.009690 0.062886
0.009449 0.011173 0.134183
0.026693 0.003985 0.114935
-0.006230 0.032523 0.112659
0.026864 0.009518 0.113510
-0.027259 0.030337 0.103830
0.007687 0.023574 0.120455
-0.010187 0.027044 0.110149
0.017458 -0.006701 0.094884
0.000121 0.009472 0.104027
-0.024537 -0.033370 0.110052
-0.003893 0.008519 0.064782
0.026393 0.035073 0.101157
-0.004059 -0.035249 0.116448
0.023836 -0.038208 0.124579
-0.014151 -0.027689 0.122503
0.011032 -0.001591 0.097580
0.024132 0.001579 0.091598
0.021964 -0.035490 0.123904
0.001221 -0.028573 0.108998
0.020716 0.009398 0.110613
0.002764 0.024353 0.116622
-0.015038 0.030128 0.109578
-0.003205 0.025667 0.105827
0.008948 0.009636 0.094799
0.009969 0.012213 0.094046
0.031418 -0.046181 0.114511
0.015273 -0.040212 0.130587
-0.001355 0.004869 0.098539
0.008545 -0.029896 0.094615
0.014388 -0.027383 0.132981
0.016522 0.000899 0.073585
-0.003601 -0.061712 0.125686
0.011280 -0.009157 0.104815
-0.008117 -0.032802 0.116797
0.014370 0.013110 0.101088
0.008739 0.009809 0.090799
0.004567 -0.024371 0.094285
0.027001 0.015659 0.100079
-0.010664 0.014442 0.135975
0.001008 0.023450 0.113546
-0.014929 0.002320 0.110633
-0.008405 -0.002445 0.107971
0.002118 -0.017017 0.097134
0.021962 0.010068 0.111663
0.004767 -0.027839 0.094916
-0.013023 0.002339 0.110593
0.016480 -0.040177 0.129558
0.031070 -0.040203 0.116162
0.018406 -0.008425 0.095685
0.001531 -0.003791 0.100570
0.008509 0.010910 0.094945
0.004144 0.003708 0.088236
-0.010106 0.003119 0.056294
0.029278 -0.053838 0.126817
-0.000043 0.017782 0.102905
-0.001874 0.012328 0.102363
0.008934 0.007842 0.135851
-0.000954 -0.001687 0.103866
-0.002480 0.028298 0.113133
-0.021715 0.030476 0.102718
-0.003828 0.037326 0.110102
0.008224 -0.009811 0.098776
0.015195 -0.003939 0.093216
-0.004327 0.037650 0.110147
0.009534 0.023934 0.125483
0.008974 0.009403 0.096786
-0.021172 -0.030617 0.108261
0.014012 0.009571 0.104742
0.000630 0.017937 0.080777
0.022997 -0.028063 0.115620
0.026836 0.034503 0.100081
0.025628 0.036259 0.099289
0.005054 0.007412 0.079558
0.032150 -0.060287 0.126067
0.008868 0.023336 0.127446
-0.011646 0.000220 0.108325
0.002563 0.004034 0.102388
0.027242 0.003990 0.114924
0.015934 -0.039986 0.130597
0.014035 -0.027061 0.134028
0.000762 0.012034 0.103280
-0.011827 0.002508 0.058278
0.023754 -0.005359 0.089860
-0.011613 0.003232 0.069416
-0.004562 -0.023577 0.098592
-0.020565 -0.030485 0.107256
0.005695 0.006280 0.078418
-0.007922 0.029608 0.112385
0.006846 -0.029978 0.077543
-0.000119 0.003378 0.102376
0.025153 0.002701 0.094713
0.003032 -0.017532 0.096054
0.000279 0.013129 0.103408
-0.000378 0.011854 0.104292
-0.017496 -0.024200 0.104842
-0.004023 0.009277 0.062854
0.004151 -0.025900 0.095137
-0.005501 -0.056617 0.125265
-0.016104 -0.032953 0.122990
-0.008420 -0.051522 0.120842
-0.005416 -0.047581 0.102085
0.000729 0.008095 0.105879
-0.004379 0.011173 0.067088
0.025338 0.035818 0.099248
-0.010622 0.013541 0.131854
0.008897 0.005489 0.134595
0.009994 0.018751 0.075631
-0.013723 0.000724 0.060141
0.006357 -0.012492 0.091489
-0.003998 -0.034204 0.115552
-0.025827 -0.036543 0.111753
0.025740 0.006902 0.112249
0.002982 -0.010171 0.098852
0.019432 -0.017667 0.095683
0.003370 0.017670 0.073648
0.023923 -0.027642 0.114639
0.007750 0.033540 0.101399
0.009131 0.011363 0.093974
0.023376 -0.027869 0.115633
-0.029102 -0.038576 0.111608
0.016158 0.035718 0.101449
0.005061 -0.026939 0.095006
-0.003458 0.007694 0.061667
0.026446 -0.030869 0.115246
-0.004141 0.035016 0.109862
0.015710 0.035265 0.101410
0.013163 -0.019295 0.135882
-0.000317 0.025042 0.116762
0.027936 -0.048885 0.127375
0.000793 -0.019799 0.095860
-0.020902 -0.025298 0.103793
-0.001848 -0.016450 0.097281
0.008389 -0.027654 0.076751
-0.011522 0.032396 0.102702
0.020569 -0.032181 0.122275
-0.006510 0.008877 0.093043
0.010224 0.014407 0.133505
-0.006318 0.037960 0.110224
-0.006238 -0.022779 0.099719
-0.015472 0.002375 0.111656
0.021474 -0.018035 0.096605
0.004048 0.024305 0.117595
-0.000849 0.021035 0.103270
0.025941 -0.040605 0.126290
0.000340 -0.007589 0.099185
-0.001335 0.024861 0.119783
0.000231 -0.020721 0.094768
0.001016 -0.028715 0.101946
-0.003019 0.008471 0.111030
-0.020197 0.031248 0.102768
0.028658 0.011756 0.120751
0.002626 -0.004091 0.100514
0.009080 -0.010705 0.099668
0.001988 -0.018740 0.095948
0.015432 -0.016910 0.074726
0.016470 -0.038870 0.129698
0.005180 -0.038503 0.094776
-0.001464 -0.039234 0.124014
0.026531 0.035534 0.100198
0.008067 -0.029297 0.096701
0.029814 -0.037779 0.115442
0.009513 -0.018964 0.095760
-0.000801 0.009660 0.103061
-0.000096 0.000392 0.102057
-0.000901 0.007101 0.105808
0.017070 0.034531 0.101302
0.024605 -0.005606 0.090821
-0.006923 0.008320 0.092992
-0.014752 0.011672 0.064349
-0.000515 0.013593 0.103475
-0.014739 0.027779 0.106303
0.009668 -0.027764 0.074700
-0.018219 -0.026311 0.105638
-0.001110 0.007527 0.106864
-0.004529 0.009077 0.084974
-0.005312 0.036487 0.110045
0.022182 -0.033201 0.123137
-0.001206 0.021132 0.104294
-0.018047 0.002116 0.110679
-0.001769 0.007026 0.106825
-0.021427 -0.031183 0.107200
0.013868 0.002934 0.067824
0.009099 0.034152 0.101435
0.007916 -0.029606 0.096671
-0.007003 -0.001760 0.106001
0.011832 -0.003468 0.096357
0.017950 -0.038167 0.127729
0.009281 0.007656 0.096593
-0.002432 0.028981 0.112199
0.030163 -0.055988 0.126569
0.030844 -0.059868 0.126140
0.005600 -0.009531 0.098863
0.016907 -0.006667 0.095905
-0.001560 -0.034838 0.098331
-0.005498 0.015774 0.073638
-0.020989 -0.024057 0.095880
0.013340 -0.012982 0.136551
-0.001353 0.004570 0.098507
0.020629 -0.016758 0.095754
0.004441 0.025296 0.088521
0.019503 0.001436 0.081625
0.002902 -0.019888 0.096811
-0.006261 0.026908 0.111055
0.009391 0.017896 0.076559
-0.016838 -0.022693 0.104988
0.024883 -0.005603 0.090816
0.000260 0.008628 0.104940
-0.007787 -0.022746 0.100762
-0.016172 0.002193 0.111652
0.028244 -0.033778 0.115903
0.010588 -0.002493 0.097494
-0.023694 0.030304 0.102743
0.008854 0.010660 0.093905
0.025001 0.002409 0.093680
0.029697 -0.051890 0.127016
-0.011753 -0.028846 0.118304
-0.005221 -0.039642 0.119022
0.020389 -0.030355 0.121468
0.032980 -0.049226 0.114152
0.001355 0.008324 0.107901
0.025447 0.003004 0.095745
-0.008748 -0.047511 0.120271
-0.002533 -0.011039 0.091838
0.027051 0.005079 0.115044
0.005304 -0.034865 0.095161
-0.001751 -0.021470 0.095738
0.008449 0.010307 0.095888
-0.002151 0.020651 0.104263
0.012877 0.033921 0.100322
0.012273 -0.002872 0.096411
-0.010973 0.028386 0.113327
-0.020400 -0.029449 0.107363
-0.013892 0.002675 0.110648
-0.014084 0.009429 0.069124
0.000807 0.003433 0.103368
0.020981 -0.032785 0.122202
-0.010624 -0.000444 0.108232
-0.009851 0.027047 0.110142
0.023683 0.000814 0.089515
0.000795 -0.006664 0.099273
0.021362 0.010808 0.109743
0.009849 0.034458 0.101451
0.015011 -0.034941 0.131155
0.000832 0.023622 0.113568
0.020868 -0.027168 0.117774
0.003856 -0.025030 0.096242
0.012612 -0.017465 0.135083
-0.012339 0.032569 0.104750
0.005355 -0.037609 0.095873
0.025042 0.035963 0.100276
0.004516 -0.031539 0.095533
-0.004811 -0.054098 0.124513
-0.009845 0.032261 0.102651
-0.012579 -0.027873 0.117420
-0.017500 -0.023700 0.104895
0.002754 -0.000209 0.101931
0.027726 -0.049751 0.127287
-0.023696 -0.039429 0.110393
-0.004962 0.023838 0.107682
-0.002147 0.003253 0.059153
-0.011640 -0.054243 0.108551
0.002081 0.004972 0.102499
0.002362 0.016904 0.075600
0.015404 -0.043329 0.131258
-0.001149 0.013744 0.103504
0.003137 -0.030114 0.096721
0.025525 -0.041882 0.126162
-0.004725 0.006296 0.086693
0.005921 -0.040696 0.093520
-0.004213 0.005623 0.093652
0.001512 0.024980 0.114704
0.027415 0.005265 0.115056
-0.003554 -0.060204 0.124840
0.013907 -0.002882 0.094362
0.024745 -0.005743 0.090804
0.004075 -0.009668 0.099888
0.002224 0.024227 0.115614
0.003126 -0.026251 0.102163
0.005225 -0.028583 0.094827
0.027935 -0.048669 0.127398
0.023053 0.010751 0.112718
0.005857 0.007053 0.077491
-0.005479 0.036650 0.110066
0.009071 0.016716 0.132771
0.003668 -0.041168 0.093519
0.030007 -0.037969 0.115417
0.017319 -0.007723 0.094778
-0.018326 -0.025208 0.104752
-0.004538 0.012683 0.068258
0.015766 0.000467 0.070537
0.014323 -0.018467 0.095709
0.003758 -0.032001 0.095500
0.004948 0.025809 0.088564
-0.008850 0.010745 0.050039
0.016592 -0.000829 0.069375
0.005452 0.026575 0.088635
-0.002386 0.017914 0.102970
0.000352 0.003698 0.102400
0.013053 -0.016343 0.135193
-0.018021 -0.023856 0.102878
-0.009886 -0.046470 0.121413
0.018568 0.013598 0.082942
0.023041 -0.044014 0.134036
-0.004759 -0.038548 0.118123
0.022522 -0.001039 0.081295
-0.004296 0.008159 0.065758
0.005752 0.027169 0.089698
-0.024958 -0.039981 0.110362
0.002154 -0.003629 0.100573
-0.013499 0.031921 0.102694
0.014338 0.000155 0.064500
0.027236 0.004718 0.115001
-0.006266 -0.034974 0.117531
0.020660 -0.028149 0.118680
-0.003761 0.009865 0.063917
0.004438 -0.041086 0.094516
0.020884 0.010089 0.110683
0.001234 -0.003591 0.099592
-0.002360 0.007589 0.035478
0.004081 0.017689 0.070617
0.002863 -0.015140 0.096313
0.015455 0.012330 0.103999
-0.005280 0.007716 0.091886
-0.009705 -0.022924 0.100785
0.025085 -0.027284 0.115658
0.004780 0.017214 0.065521
-0.025194 -0.032966 0.111115
-0.023785 -0.037992 0.109543
0.021478 0.000340 0.085488
0.008723 0.013750 0.133468
0.016473 0.001220 0.072614
0.001229 -0.002977 0.099657
-0.008880 -0.004817 0.066486
-0.017393 -0.023606 0.105909
-0.002859 0.006104 0.105744
0.025669 0.014378 0.119084
0.025576 0.004839 0.097950
-0.007556 -0.045090 0.120504
0.001813 -0.001161 0.101850
-0.003946 -0.043588 0.100467
-0.011225 0.001755 0.068244
0.015422 -0.016308 0.075797
-0.003951 -0.042936 0.100537
0.028956 -0.035201 0.114730
-0.010622 0.027872 0.113265
0.009431 -0.026417 0.073843
-0.013422 0.031316 0.104640
-0.007351 0.030663 0.113491
0.033127 -0.063543 0.127710
0.004885 -0.033422 0.097336
0.020597 -0.031156 0.121378
0.013248 -0.024070 0.133359
-0.005814 0.037141 0.110125
-0.016125 -0.021790 0.104063
-0.019313 0.000594 0.111550
-0.000424 -0.030919 0.110795
0.023008 0.014524 0.118151
0.002093 -0.012903 0.096568
0.023946 -0.027674 0.115641
-0.024965 -0.039082 0.110458
0.006732 -0.024402 0.090211
-0.010756 0.010911 0.054122
0.029732 -0.056424 0.126531
-0.001198 -0.029751 0.111943
0.000557 -0.012184 0.097684
0.001317 0.001663 0.102162
-0.009257 -0.040349 0.118029
0.004141 0.005220 0.083368
0.009464 0.004036 0.136439
-0.006823 -0.003571 0.105804
0.025302 0.013062 0.118951
0.024837 0.006061 0.096085
-0.010498 0.010978 0.054123
-0.007829 -0.033830 0.117687
-0.022877 -0.039585 0.109353
0.003113 -0.025152 0.101274
0.026191 0.006973 0.111241
-0.006945 0.027744 0.111159
0.027139 0.016526 0.099163
0.002824 -0.029503 0.096793
0.012823 -0.019080 0.095676
0.023807 -0.040414 0.126356
-0.011687 0.009985 0.061084
-0.005120 0.033029 0.109671
0.002780 0.017116 0.075613
-0.007163 -0.002420 0.105934
-0.010297 0.031650 0.102596
-0.004404 0.006271 0.092719
-0.009091 -0.001440 0.108093
-0.009770 0.012709 0.131747
-0.014372 0.010448 0.069239
0.015609 0.013440 0.103108
0.032948 0.017968 0.122326
-0.014492 -0.022670 0.104940
0.013327 0.009687 0.105775
0.000389 -0.029762 0.095812
-0.005287 -0.039899 0.114973
0.009072 -0.029653 0.097647
-0.001970 -0.015475 0.099400
0.030739 -0.054133 0.124742
-0.001124 0.010600 0.103168
0.013314 0.011479 0.105966
0.026806 0.013640 0.118980
0.001609 0.004653 0.102475
-0.004632 0.013045 0.068299
0.019025 0.001193 0.081609
0.000646 0.006530 0.102696
0.019653 -0.035796 0.127945
0.011187 -0.009881 0.103734
0.020537 0.010086 0.110690
0.007029 -0.037707 0.101862
-0.010482 0.001350 0.067178
0.009114 0.005709 0.134613
0.002190 -0.008289 0.100076
0.001121 0.004232 0.103446
0.002402 -0.013947 0.096450
-0.008227 -0.035141 0.119568
-0.020845 -0.047755 0.108437
-0.001533 0.022544 0.104451
-0.004536 0.012501 0.068239
-0.013509 0.009983 0.066153
0.019436 -0.018116 0.095635
0.001493 -0.013059 0.096564
0.005743 0.006964 0.079496
0.007431 0.018043 0.129930
0.009195 -0.028428 0.077657
0.004565 -0.037751 0.094869
-0.001755 -0.002822 0.103762
-0.000917 -0.042782 0.126641
-0.004645 -0.057033 0.125202
0.001363 0.022931 0.113483
0.023003 -0.035686 0.123860
-0.000151 -0.033094 0.098486
0.032847 0.017710 0.125319
-0.005083 -0.047244 0.102114
-0.013061 0.009689 0.064100
0.030009 -0.038160 0.115397
0.000923 0.011564 0.103227
-0.020759 -0.023135 0.090944
-0.022833 -0.032865 0.109063
-0.023817 -0.033897 0.109980
0.001880 -0.008602 0.100049
0.030201 -0.038158 0.115393
-0.008969 -0.045104 0.120533
0.000417 0.009274 0.105005
-0.015500 0.003495 0.112782
-0.000654 0.006282 0.103704
-0.003966 -0.047829 0.121139
0.015972 -0.000516 0.070428
0.008982 -0.019008 0.094761
-0.011265 0.011072 0.056162
0.012551 0.035233 0.101475
0.002412 0.023161 0.115496
0.001598 -0.041425 0.091524
0.002759 -0.000837 0.101864
-0.026299 -0.036949 0.109709
-0.012976 0.009606 0.064090
0.001536 -0.018594 0.095973
-0.002878 0.024716 0.105718
-0.005324 0.014849 0.070518
-0.003765 0.026620 0.106947
0.008737 0.004764 0.135527
0.002109 -0.015956 0.097248
0.015504 -0.041528 0.130442
0.032790 -0.049419 0.114135
-0.019665 0.000764 0.111575
0.007912 -0.029145 0.096721
0.023793 -0.000073 0.088412
0.002279 -0.017390 0.096085
-0.005422 -0.039250 0.119068
-0.000375 -0.019250 0.094939
0.033283 -0.066321 0.125399
0.002907 0.000422 0.101995
0.000531 0.018788 0.083888
0.001616 0.002327 0.103232
-0.027329 -0.037486 0.110680
0.008763 -0.030122 0.097604
-0.005419 -0.039644 0.119026
0.000088 -0.006489 0.097296
0.026941 0.003839 0.098820
-0.005065 0.025943 0.108914
-0.020976 -0.023712 0.093904
0.003381 0.003435 0.090235
0.003973 -0.022461 0.095507
0.031312 -0.064182 0.125670
-0.001868 -0.010686 0.094879
0.000674 -0.029557 0.109911
-0.004438 0.019609 0.105207
0.000647 -0.010634 0.099859
0.015857 0.035715 0.101455
0.004945 0.007326 0.098664
0.020937 0.016326 0.117382
0.002944 -0.025463 0.095210
0.013938 -0.019558 0.136843
-0.003873 -0.034704 0.119520
-0.008046 0.030828 0.113524
0.024121 -0.017380 0.094606
0.000196 -0.020403 0.095809
0.007592 0.034436 0.101498
-0.007017 0.032217 0.113650
0.005307 -0.019903 0.095751
0.005644 -0.019860 0.096754
0.008118 0.034107 0.102457
0.023545 0.001216 0.089560
-0.003875 -0.034099 0.116567
-0.010450 0.028046 0.113279
-0.006637 -0.037296 0.117291
0.002961 -0.027708 0.094970
-0.025978 0.030130 0.102774
-0.019812 -0.025177 0.102776
-0.001130 0.011386 0.103252
0.021984 -0.034226 0.123032
-0.000144 -0.029435 0.097871
0.000197 -0.020553 0.095793
0.002002 -0.020535 0.095756
-0.007936 -0.048106 0.120190
-0.008031 0.013815 0.135851
0.024231 0.011136 0.111728
0.004209 0.005938 0.077408
0.027063 0.003443 0.114869
0.022777 -0.036761 0.124757
0.032982 -0.049417 0.114131
-0.007756 -0.050868 0.104803
0.005393 -0.034611 0.098204
0.007716 -0.020029 0.095686
0.001393 0.010439 0.104103
0.000491 -0.019652 0.095883
0.028366 -0.048233 0.127435
0.020517 -0.036215 0.127881
0.008077 0.013743 0.133481
0.001641 0.000566 0.102038
0.010167 -0.018553 0.094784
-0.002081 -0.009959 0.095967
0.011166 -0.004963 0.136448
-0.003757 -0.041269 0.117811
0.020630 -0.016907 0.095738
-0.002398 -0.010994 0.103910
0.006168 -0.020071 0.094709
0.000167 0.019381 0.083959
0.020181 0.011289 0.110826
-0.010377 0.000742 0.068117
0.026231 0.034223 0.099058
0.015157 0.002431 0.070760
0.005169 -0.009812 0.099848
0.009856 -0.025951 0.072877
-0.009092 -0.004275 0.065542
0.029064 -0.054272 0.126776
-0.005300 -0.034384 0.117573
-0.005257 0.028604 0.111214
-0.024459 0.030751 0.102807
0.003797 -0.019170 0.095862
0.002706 -0.014243 0.096412
0.002405 0.024051 0.115592
0.003084 -0.002688 0.100654
0.010957 -0.006977 0.136238
0.010360 -0.031792 0.099403
0.009978 0.011091 0.093926
0.020363 0.010256 0.110712
0.015612 0.012968 0.103057
-0.005630 0.034671 0.109858
0.023211 -0.038631 0.124548
-0.025064 0.030139 0.102755
-0.004413 -0.022643 0.098688
0.028160 -0.049746 0.127278
0.021973 -0.032794 0.123185
-0.024003 -0.033009 0.110079
-0.020129 -0.047748 0.108422
-0.012981 0.010190 0.064152
-0.003861 0.009523 0.062877
-0.006767 0.026566 0.111030
-0.010956 -0.023036 0.105830
0.008611 -0.019122 0.095763
-0.000235 0.009911 0.105088
0.016271 0.000707 0.072564
0.000954 0.005185 0.103552
-0.007579 -0.042029 0.118819
0.015523 -0.000743 0.069408
-0.013740 0.010849 0.064239
0.001773 0.002647 0.103263
0.015454 0.012489 0.104016
-0.017999 -0.024205 0.104852
0.015381 -0.003659 0.095253
-0.013884 0.001641 0.110537
0.005509 -0.037454 0.095887
0.024292 -0.016885 0.092643
0.028778 0.005122 0.099922
0.017776 -0.017534 0.095733
-0.022935 0.030615 0.102760
0.003286 0.017453 0.074632
-0.001940 0.007684 0.106899
0.004478 0.005033 0.072276
0.009865 0.001699 0.135175
-0.009982 0.012707 0.131751
-0.009231 0.010910 0.051070
-0.002889 -0.010655 0.085851
-0.002338 0.003925 0.097453
0.005344 -0.036075 0.096037
0.001437 0.006538 0.102680
0.011036 0.023844 0.124435
0.007565 -0.020030 0.095689
0.028058 0.003353 0.115844
-0.002595 -0.010611 0.088867
-0.025069 -0.042942 0.113066
0.009739 -0.009385 0.096777
0.027283 -0.048348 0.126440
-0.002374 0.006924 0.105821
0.004884 -0.042801 0.093318
0.021503 -0.038384 0.129641
0.001107 -0.009542 0.099966
-0.000007 -0.013672 0.096531
0.026658 0.017018 0.097214
0.014017 -0.017038 0.094862
0.024139 -0.017281 0.093610
0.019676 -0.027769 0.118742
0.018763 -0.008995 0.096622
-0.019284 -0.048023 0.106363
-0.002074 0.003269 0.056135
0.009783 0.018957 0.075657
0.019643 -0.017599 0.096691
0.012975 0.012941 0.106130
0.004225 0.022569 0.116400
-0.016268 -0.034609 0.123823
0.009604 -0.025318 0.070938
-0.003618 -0.067122 0.126115
0.001965 -0.000374 0.101931
0.016618 0.034526 0.101311
0.017024 0.001543 0.075654
-0.002555 0.019465 0.103139
0.021067 0.000775 0.084538
0.013731 -0.018518 0.094710
-0.007454 0.027739 0.111170
-0.006983 0.032633 0.111682
0.032028 -0.050383 0.114049
0.004278 -0.040027 0.094633
0.010127 0.004707 0.136496
0.005626 -0.037135 0.094912
0.013573 -0.018773 0.095692
0.025694 0.001718 0.092585
-0.009255 -0.040544 0.118008
-0.004056 -0.039107 0.097930
0.004578 0.005969 0.075391
0.000091 -0.011128 0.097807
0.006929 -0.029266 0.092705
0.020459 -0.027566 0.118746
0.000597 0.018253 0.081817
0.000463 0.016192 0.101719
0.003824 -0.040486 0.094594
0.013860 -0.015885 0.091970
-0.004178 0.009259 0.083980
0.030873 -0.063538 0.125748
0.003291 -0.026412 0.102142
0.003924 -0.035479 0.094120
0.010113 0.011934 0.094013
0.024464 0.014156 0.117074
0.004950 0.025555 0.088537
-0.002825 -0.010247 0.093940
-0.009604 -0.002684 0.067735
0.003174 -0.034371 0.097272
0.003703 -0.003720 0.099524
0.024069 0.005123 0.098013
0.022397 -0.019087 0.096473
0.030966 0.018633 0.124452
-0.009879 -0.047280 0.121326
0.003455 0.013674 0.056119
0.001912 0.017230 0.078662
0.016379 -0.004297 0.094158
0.000468 0.005975 0.103646
0.009654 0.012687 0.134340
-0.014500 0.011591 0.064335
0.000059 -0.007037 0.098244
-0.014314 0.025560 0.104045
0.016199 -0.000254 0.069445
-0.001566 0.001382 0.055923
-0.007020 0.035709 0.108993
-0.008802 0.026714 0.111090
