ply
format ascii 1.0
element vertex 1673
property float x
property float y
property float z
end_header
-0.017418 0.026795 0.124244
0.016005 0.016680 0.104070
0.012160 -0.003727 0.119219
0.030496 0.001210 0.099588
0.060845 0.051193 0.138841
0.057227 0.040064 0.141635
-0.002926 0.018156 0.119897
0.000088 0.024548 0.164363
-0.016008 -0.020072 0.102781
0.009170 0.005552 0.032223
0.002862 -0.002698 0.087577
-0.028468 0.043762 0.145420
-0.002381 0.057858 0.118795
0.010405 0.014664 0.094744
0.056023 0.028932 0.144194
0.008284 0.005863 0.086964
0.014856 0.027264 0.092693
0.007369 0.014955 0.097027
0.008790 0.014930 0.095879
-0.011328 -0.015455 0.092618
-0.009092 -0.007589 0.096455
0.032146 0.032101 0.090395
0.000516 -0.007169 0.091418
0.020837 0.007976 0.074334
0.004189 0.000575 0.088041
0.059566 0.049819 0.139142
0.015175 0.008413 0.092046
-0.003434 0.008458 0.064471
0.013267 0.003400 0.106042
0.021571 0.009350 0.078138
-0.023329 0.020459 0.109426
0.015039 0.030009 0.092323
0.002413 0.028407 0.110972
0.004657 0.017196 0.100040
0.042402 0.000614 0.146115
0.016525 0.029315 0.092268
0.027247 0.031981 0.091899
0.006349 0.000222 0.074709
0.038000 -0.011848 0.148143
0.002710 0.000020 0.086230
0.004911 0.045758 0.161170
0.013354 0.027636 0.071521
0.004609 0.000538 0.036348
0.013561 0.019144 0.093862
-0.019430 0.005914 0.118006
-0.022471 0.047748 0.145339
-0.035250 0.001553 0.121114
-0.013918 0.031318 0.119272
0.013651 0.023673 0.091246
0.010921 0.010292 0.091204
0.017072 0.034427 0.091558
0.018390 0.077585 0.149697
0.000148 -0.006183 0.091327
0.020512 0.037016 0.088866
0.012391 0.018804 0.091994
-0.015200 0.027388 0.121927
-0.027977 0.040766 0.145757
0.003016 0.027899 0.113005
-0.021450 -0.001402 0.102936
0.054707 0.030669 0.143086
0.043366 0.046202 0.110791
0.020377 0.040108 0.088482
0.000161 -0.001338 0.099819
0.017372 -0.006971 0.082667
-0.015433 0.065999 0.137247
0.004528 0.004974 0.020593
-0.007081 0.010984 0.126286
-0.023256 0.046998 0.145511
0.058386 0.043345 0.141101
0.000809 -0.020299 0.101179
-0.035983 -0.001134 0.122543
0.006415 0.041426 0.160568
0.001500 0.030375 0.109795
0.043673 -0.002073 0.148362
0.022396 0.039360 0.083318
0.014914 0.019869 0.091612
-0.005976 -0.018474 0.097551
0.019269 0.038124 0.089858
0.004946 0.004962 0.021567
-0.019194 0.009907 0.117470
0.026136 0.030682 0.091160
-0.015178 0.024702 0.119232
-0.017576 0.018175 0.118277
0.014876 0.025539 0.092913
-0.016574 0.062639 0.140828
0.021552 0.008903 0.079210
-0.008874 0.002452 0.096157
0.008175 0.049530 0.158343
0.002494 0.036998 0.161517
-0.022933 0.000252 0.104893
0.015177 0.016097 0.103213
0.009957 -0.011550 0.123476
-0.003130 0.058766 0.118752
-0.001381 -0.017145 0.097947
0.005512 0.039706 0.160877
-0.022599 0.055990 0.143280
0.012425 0.016551 0.093293
-0.001775 0.000103 0.096783
0.047606 0.012970 0.145035
-0.008348 -0.011934 0.094915
-0.025457 0.001164 0.105021
-0.006192 0.047615 0.119468
0.013046 -0.000776 0.115716
0.013724 0.025946 0.091960
0.000997 -0.021819 0.102369
0.014321 0.063421 0.154950
-0.003852 0.057329 0.119006
0.015426 0.008730 0.092993
-0.004842 -0.017439 0.095282
0.002430 0.001902 0.088041
-0.011673 -0.016124 0.093750
-0.012073 -0.014765 0.092602
0.016390 0.008424 0.091926
-0.012111 -0.014177 0.094555
-0.002689 -0.013402 0.092529
0.045676 0.043877 0.111879
0.049307 0.016288 0.144444
-0.008618 -0.011692 0.093897
-0.013223 0.068345 0.138757
-0.002704 0.057551 0.118866
-0.006400 0.033304 0.111198
-0.002013 -0.015685 0.094783
0.001651 0.068750 0.120044
-0.019770 0.005920 0.117025
0.004923 0.004987 0.021566
0.055573 0.030283 0.142039
0.014184 0.022851 0.092313
-0.001585 -0.015550 0.097762
0.017295 0.033722 0.091627
0.049201 0.014491 0.144685
0.023193 0.035805 0.079646
-0.023533 0.050918 0.143009
0.022054 0.008828 0.082209
-0.024875 0.021592 0.107404
-0.008569 0.040814 0.119559
-0.007683 0.013558 0.126013
0.021415 0.036787 0.087795
0.014247 0.017981 0.091919
0.007607 0.011965 0.090298
0.004939 0.004965 0.021567
0.010290 -0.004453 0.119494
0.015899 0.070146 0.152920
0.026898 0.001574 0.100903
0.006207 0.006011 0.090185
0.030241 -0.028267 0.147966
-0.008241 0.003845 0.086801
0.010875 0.012520 0.091935
-0.009566 0.011688 0.127449
0.028757 0.003704 0.105513
0.033785 0.029166 0.090613
0.006835 0.010198 0.090599
0.031159 0.000202 0.100666
0.025499 -0.014432 0.110185
0.028640 0.003542 0.099468
0.015444 0.032048 0.092022
-0.003851 -0.011418 0.092387
0.046809 0.012209 0.145211
0.013596 0.018351 0.093961
0.001105 -0.022620 0.101448
0.005262 0.021633 0.114605
-0.007834 0.002850 0.093979
0.003958 0.012432 0.074385
0.014343 -0.010586 0.113811
-0.003040 -0.011584 0.091317
-0.004784 -0.011223 0.092452
-0.027473 0.019693 0.111952
0.007342 0.014719 0.080853
0.054517 0.028624 0.143367
0.026036 0.007772 0.100190
0.014642 -0.014015 0.116249
-0.017917 0.026420 0.123328
0.024184 0.035134 0.099893
0.017184 0.028703 0.091270
-0.015219 0.029859 0.122625
-0.000411 0.002494 0.091279
0.007657 0.006686 0.090971
-0.001578 -0.000338 0.095807
-0.023442 0.020140 0.109478
0.002997 -0.002230 0.086491
0.018894 0.031785 0.090708
-0.010866 0.004976 0.091974
0.030913 -0.024188 0.147377
0.005758 0.003047 0.087571
-0.010922 -0.014218 0.095458
-0.025155 0.049483 0.144363
0.028477 0.030325 0.089966
-0.026095 0.048286 0.144608
-0.012524 -0.016100 0.093830
0.030168 -0.000666 0.099861
0.024186 0.008475 0.099267
-0.010474 0.011584 0.127551
0.027067 -0.036527 0.149335
0.050342 0.014543 0.145581
0.002457 0.002758 0.086915
-0.008121 0.002871 0.095017
0.013110 0.059358 0.156602
0.007840 0.008212 0.092783
-0.005779 0.009454 0.127369
0.007034 0.011549 0.091419
-0.018734 0.009546 0.117472
0.026898 0.002765 0.098724
0.025851 0.031282 0.098201
-0.010367 -0.021862 0.101451
-0.034816 0.004302 0.123757
-0.010142 0.035100 0.119433
0.005604 0.039965 0.160834
0.007601 -0.000504 0.064552
-0.035849 -0.000191 0.122409
0.001673 -0.005440 0.090070
0.005278 0.006812 0.087134
0.006205 0.016319 0.098990
0.054008 0.026430 0.143698
0.011249 0.002924 0.109337
0.025942 0.034757 0.100784
0.001435 -0.004514 0.089974
0.011690 0.017688 0.092205
0.026151 0.030801 0.085066
0.000461 -0.008199 0.092568
0.006361 -0.016435 0.124453
0.060963 0.053773 0.138498
-0.001500 0.000003 0.096769
-0.007942 0.013437 0.126054
-0.015389 0.065093 0.139385
0.004776 0.023770 0.115390
0.015873 0.068438 0.153142
0.002497 -0.002566 0.087595
0.002080 -0.001764 0.086520
0.062281 0.047856 0.143182
0.004908 0.002919 0.088683
-0.024870 0.048099 0.144514
0.025693 0.006204 0.097386
0.016680 0.070723 0.152770
-0.001641 0.009949 0.063093
-0.011099 -0.014301 0.095486
-0.011465 -0.026616 0.103181
0.021797 0.037617 0.088665
0.007396 0.021461 0.113407
0.013973 0.027090 0.091789
-0.005524 0.050107 0.119083
0.026988 0.031311 0.090997
0.030645 0.026727 0.086167
-0.025712 0.003297 0.106797
0.012465 0.010594 0.092028
-0.022891 0.001086 0.106808
0.022152 -0.038737 0.148069
0.020342 0.037838 0.088777
0.030582 -0.025849 0.147622
-0.000346 0.024999 0.164347
0.000194 -0.019589 0.100134
0.001191 -0.020121 0.101119
0.007271 0.017548 0.046059
-0.008038 -0.006318 0.096189
0.014750 0.023399 0.093200
0.032936 0.002269 0.102254
0.007663 0.015329 0.096950
0.005960 0.006214 0.089170
0.025280 0.025403 0.083818
0.027296 0.031007 0.085942
0.056564 0.038190 0.141940
0.014363 0.019612 0.091698
0.017538 -0.005446 0.083468
-0.010193 -0.022705 0.101542
0.055737 0.035847 0.142321
0.043328 0.045664 0.109851
-0.008074 0.044591 0.119026
0.028863 0.023445 0.064478
-0.008425 -0.013203 0.094073
-0.001558 0.020729 0.165013
-0.000210 -0.009686 0.092824
0.005356 0.032351 0.065614
0.011411 0.002866 0.109329
0.027274 0.031676 0.090922
0.008960 0.023435 0.063371
0.011354 0.002704 0.109355
0.003793 0.004933 0.018644
0.019390 0.030989 0.090762
0.034095 0.001073 0.103308
-0.004450 0.055635 0.119282
0.009089 0.010463 0.092372
-0.012463 -0.014614 0.089581
0.007822 0.010819 0.091437
0.040690 -0.004232 0.146903
0.012942 0.000038 0.115621
-0.019052 0.059976 0.141411
0.004408 0.002226 0.089833
-0.022043 -0.000884 0.103940
-0.008157 0.004083 0.086762
0.006734 -0.000015 0.063561
0.025831 0.005668 0.097442
0.018145 0.031228 0.091865
-0.010881 0.031243 0.120000
-0.038466 0.003111 0.127303
0.031736 -0.024893 0.148400
0.005131 0.023642 0.115372
0.035412 -0.016819 0.148019
-0.003605 0.032032 0.110077
-0.015090 -0.021985 0.102937
0.035711 -0.017444 0.148070
-0.001243 0.064244 0.119890
0.040503 -0.006247 0.147180
0.029547 -0.028780 0.148099
-0.004828 -0.016831 0.102293
-0.008671 0.042308 0.119377
-0.008508 -0.012435 0.092969
0.005816 -0.000730 0.043484
-0.002751 0.063059 0.120189
0.002326 0.012311 0.072534
0.015080 0.029681 0.092361
-0.011423 -0.026948 0.103219
0.005535 0.024085 0.114263
0.017693 0.035295 0.091387
0.028016 0.030337 0.090009
0.009397 0.010051 0.092395
0.019334 0.034551 0.089297
0.014325 0.026207 0.092881
0.003087 -0.001592 0.086400
0.063018 0.048401 0.143041
-0.017458 -0.019286 0.105859
0.007956 0.015703 0.096873
-0.025354 0.018342 0.110907
0.023621 0.037062 0.081469
0.005997 0.042746 0.160439
0.024973 0.033521 0.101037
0.043511 0.002124 0.146826
0.009308 0.015936 0.084558
0.014311 0.028046 0.091633
0.001941 0.034367 0.160896
0.027635 0.030300 0.086000
-0.021515 0.046630 0.144377
0.031866 0.003172 0.102241
-0.010563 -0.022416 0.101541
0.025393 -0.034654 0.148243
0.006915 -0.000531 0.063609
-0.023780 0.002939 0.106656
0.006872 -0.001449 0.061706
0.031186 -0.025719 0.148560
0.014055 -0.014540 0.117386
0.018088 0.073700 0.151238
0.025396 0.028685 0.082373
0.004831 0.032030 0.065706
0.026201 0.031727 0.092033
-0.003456 -0.010708 0.092257
0.000440 -0.006573 0.091348
0.016859 0.071231 0.152688
-0.019028 0.013148 0.117038
0.020937 0.046780 0.093648
-0.003216 0.057311 0.118947
0.008572 0.023618 0.062372
-0.034824 0.007742 0.123316
0.008780 0.010875 0.092349
0.020961 0.039592 0.088492
-0.011423 -0.020611 0.100379
-0.023724 0.021396 0.110356
-0.009041 0.038132 0.117924
0.013951 0.025710 0.091968
-0.010191 -0.011116 0.092963
-0.025168 0.018860 0.111835
-0.024657 0.021840 0.109377
0.046946 0.046889 0.111369
0.014956 0.021956 0.092353
0.005684 0.038710 0.162001
-0.009485 -0.025287 0.105857
0.044565 -0.000879 0.147110
-0.011367 -0.014642 0.095556
0.004463 0.001258 0.088939
-0.001556 -0.010208 0.093022
0.005959 0.014553 0.095189
0.009891 0.004196 0.112344
0.049672 0.019566 0.143988
0.013006 0.062167 0.155239
0.026649 0.005210 0.097421
0.014870 0.028196 0.092572
0.014071 -0.005200 0.110107
0.005359 0.002196 0.088732
0.005620 0.046682 0.159970
-0.001360 0.022129 0.164814
0.060927 0.049033 0.140124
0.013305 0.024863 0.091127
-0.001692 -0.010592 0.093084
-0.010767 0.035779 0.120419
-0.016476 0.020156 0.117916
0.032728 0.030484 0.089534
0.001928 0.028726 0.162635
0.044644 0.045388 0.109759
-0.014802 -0.022674 0.104011
0.001322 -0.007318 0.091359
0.001255 0.030945 0.108733
0.009838 0.012880 0.093002
0.039145 -0.005515 0.146205
0.044803 0.009525 0.145750
0.025443 0.008491 0.100156
0.004167 0.004953 0.019618
0.000089 0.070030 0.122057
0.001332 -0.020172 0.101112
0.017619 0.031349 0.092913
0.013956 0.020005 0.092700
0.024429 0.032485 0.101223
-0.019604 0.005977 0.118015
0.001573 0.067906 0.120160
0.006114 -0.014516 0.123217
0.006755 0.005093 0.090250
0.003442 0.000560 0.086089
-0.008688 -0.010657 0.093771
0.062535 0.048575 0.143065
0.005768 -0.013165 0.123077
0.012591 0.004202 0.107017
0.012081 0.025612 0.067853
0.020274 0.032801 0.091457
0.006832 -0.013925 0.124085
0.003345 0.012053 0.072468
0.010093 0.021832 0.060428
0.034465 -0.018027 0.148266
0.013185 0.020900 0.092660
0.015719 0.069639 0.153003
0.017098 0.030045 0.092119
0.015962 0.068692 0.153101
0.005709 0.000915 0.078734
0.021247 0.033228 0.076114
-0.004380 -0.011380 0.091421
-0.003369 -0.015751 0.093910
-0.023733 0.019827 0.108533
0.012197 -0.003290 0.118147
0.023361 0.033621 0.099155
-0.005811 0.015107 0.123607
0.016999 0.069176 0.152938
0.020128 0.032385 0.091524
0.018144 0.034639 0.092440
0.038872 -0.010862 0.147931
0.024611 0.034004 0.101010
-0.034386 0.001806 0.119984
0.011072 0.017442 0.087232
0.008030 0.016613 0.046106
0.014823 0.067100 0.153416
0.022072 0.034857 0.103173
0.019317 0.038260 0.089835
0.019624 0.031213 0.090711
0.008754 0.012085 0.092197
-0.014219 0.027994 0.118716
-0.000610 -0.011168 0.092041
-0.005778 0.049988 0.119123
-0.013060 0.031416 0.119176
0.002431 -0.005294 0.089978
-0.011478 0.032867 0.117824
-0.017475 0.026470 0.123279
0.008767 0.009979 0.092466
0.031731 0.001341 0.100464
0.023241 0.038912 0.083294
0.021908 0.008429 0.080249
0.004411 0.027945 0.062220
-0.000885 0.029670 0.109104
-0.011575 -0.013073 0.094362
0.028891 0.030175 0.089945
0.029793 0.023984 0.066344
-0.003035 0.008831 0.063372
0.008108 0.017005 0.046048
0.004779 0.000486 0.037351
0.021913 0.034150 0.102266
0.026795 0.002474 0.098772
0.007750 0.011883 0.091307
0.025387 -0.033150 0.147038
0.023758 0.008914 0.080007
0.003594 0.013164 0.075340
0.026094 0.001697 0.100965
0.017412 -0.006858 0.082649
0.005476 0.005251 0.089341
0.054576 0.027282 0.143534
0.008488 0.023648 0.062376
0.001223 0.028396 0.162746
0.004601 0.031030 0.063831
-0.022995 0.000440 0.105888
0.001668 0.029862 0.163527
0.018152 0.031694 0.091805
0.002004 -0.002796 0.087673
0.040059 -0.009730 0.147671
0.015453 0.024242 0.092011
-0.034382 0.000650 0.121145
-0.010953 0.034568 0.119580
0.048357 0.014203 0.145817
0.045615 0.006740 0.145016
0.010214 0.004248 0.111293
0.010240 0.053719 0.157605
0.006275 0.000162 0.072698
0.024789 0.008559 0.100210
-0.001843 -0.014426 0.095617
-0.021330 0.025886 0.126766
-0.001844 -0.016366 0.098905
-0.002563 -0.019374 0.100374
-0.027311 0.044113 0.145262
0.003552 0.030450 0.066033
0.015150 0.028095 0.092558
-0.008169 -0.019864 0.098955
0.013373 0.019056 0.093892
0.017065 0.008594 0.092852
0.007611 0.006556 0.090992
-0.008028 0.011969 0.126251
-0.001503 -0.016188 0.097836
-0.010619 -0.023020 0.101624
0.002422 -0.000412 0.086313
-0.004004 0.055686 0.119232
-0.023348 0.000399 0.105927
0.046289 0.004934 0.145183
0.007553 -0.005517 0.079381
0.026938 0.031467 0.099085
-0.021744 0.046713 0.144388
-0.012328 -0.017364 0.095999
0.000872 -0.022378 0.101440
0.020618 0.035786 0.090027
-0.021727 0.000479 0.103734
0.025280 0.032882 0.101089
-0.007794 0.046572 0.118745
0.014045 -0.006831 0.110319
-0.022350 0.053541 0.142557
0.005545 0.008141 0.093015
0.048132 0.010774 0.141215
0.012991 0.020354 0.092749
0.006988 0.017183 0.045121
-0.006917 0.003405 0.091793
0.007290 0.006197 0.090056
0.006813 -0.015155 0.124245
0.023202 0.035042 0.101013
0.025998 -0.036649 0.149454
-0.009780 -0.011113 0.095961
0.004306 0.032667 0.067701
-0.006791 0.033826 0.111169
0.014996 0.027214 0.092686
0.015617 0.068531 0.153155
0.008622 -0.007154 0.121016
-0.034742 0.001352 0.120077
0.014197 0.020688 0.092589
-0.002835 0.016081 0.120155
0.021382 0.009169 0.078179
0.012702 0.015344 0.092408
0.004015 0.033327 0.163867
-0.010092 -0.011148 0.095996
-0.036008 0.001055 0.122264
0.027134 -0.037060 0.149397
0.008907 0.007486 0.089734
0.027149 0.006286 0.098248
0.027083 0.005161 0.098399
0.015401 -0.004928 0.080570
0.006258 0.042651 0.160426
0.021417 0.039580 0.088449
0.010168 -0.003944 0.118427
-0.009562 -0.011770 0.092986
0.025912 0.029845 0.084199
0.005996 -0.004320 0.074314
0.013903 0.025573 0.091990
0.010920 0.015075 0.092615
0.018869 0.073653 0.152182
-0.016903 0.017388 0.119326
0.008365 0.011512 0.091295
-0.024872 0.021264 0.110485
0.002491 -0.002972 0.087648
0.018963 0.032418 0.088594
-0.002157 0.010759 0.064052
0.013523 -0.012314 0.115126
0.014746 0.017135 0.104134
0.002734 -0.001061 0.086366
0.032199 0.032335 0.088334
-0.017980 0.012378 0.118048
0.027685 0.005928 0.098242
0.003667 0.001406 0.088997
-0.005137 0.054801 0.118443
0.011801 0.009826 0.091178
0.000430 -0.022485 0.100484
-0.036163 -0.000472 0.121462
-0.002665 0.060154 0.119541
0.000986 -0.007055 0.091357
0.000368 0.002371 0.088181
0.004072 0.001032 0.087993
0.014335 0.017796 0.091934
-0.010739 -0.013700 0.095374
-0.014923 -0.021096 0.098755
0.032948 0.029787 0.089602
0.003123 -0.001873 0.086433
0.011590 0.010495 0.091113
-0.010790 0.005755 0.092880
0.013805 0.022217 0.092431
-0.007523 -0.019246 0.099826
-0.006941 0.031701 0.121585
0.011068 -0.004534 0.119429
-0.021852 -0.001281 0.103972
0.009397 0.055475 0.157461
-0.002079 0.064869 0.118878
-0.024061 0.021985 0.109301
0.006841 0.033719 0.066307
0.027220 -0.033801 0.147957
0.000928 0.029829 0.109921
-0.004108 0.057209 0.119046
-0.010970 -0.025214 0.102953
-0.001766 0.030361 0.109101
-0.021197 0.002976 0.117542
0.000802 -0.005141 0.091129
-0.035207 0.000556 0.121237
-0.001612 0.002019 0.094495
0.021083 0.038635 0.088603
0.010818 0.014351 0.092718
-0.000860 -0.009883 0.092913
0.008956 0.055054 0.157558
0.022103 0.008327 0.085307
-0.015075 -0.021042 0.102815
0.016128 0.068346 0.153129
-0.010343 -0.010169 0.095895
0.024580 -0.038396 0.148803
0.016522 -0.004588 0.080418
-0.008779 -0.010913 0.093813
0.013478 0.019799 0.093786
-0.010588 -0.025036 0.102893
0.006846 -0.010696 0.122656
0.004820 0.022763 0.115515
0.033932 -0.022482 0.148890
0.002086 0.002483 0.086987
-0.013980 0.026589 0.120899
0.002458 -0.000693 0.086346
0.003657 0.012883 0.074357
0.021409 0.039341 0.087468
-0.010833 -0.026925 0.109236
-0.017772 -0.020223 0.107023
-0.017212 0.018638 0.118182
0.000936 0.030391 0.109848
0.013397 0.001235 0.112385
0.001034 -0.006050 0.090211
0.004271 0.038693 0.161127
-0.012091 -0.027338 0.104347
-0.011324 -0.026668 0.103174
0.014367 0.025879 0.092919
-0.021228 0.002486 0.118621
-0.004466 0.015597 0.122401
-0.001217 0.000364 0.096695
0.023815 0.004507 0.094748
0.018337 0.008286 0.092768
-0.012460 -0.014252 0.087509
0.022955 0.036751 0.081573
-0.018960 0.010016 0.117433
0.044494 -0.000329 0.147046
0.005644 0.042581 0.160494
-0.010317 -0.011363 0.096046
0.004590 0.023243 0.115476
0.016481 0.009109 0.092842
0.058456 0.042791 0.141165
-0.013065 0.068793 0.138684
0.004986 0.005052 0.021552
0.011159 0.015750 0.092505
-0.004575 0.051649 0.119806
-0.027150 0.044567 0.145188
0.007667 0.018626 0.051960
0.002284 -0.001569 0.086475
0.026578 0.034868 0.098683
-0.021079 0.000572 0.102646
0.024748 0.005050 0.095601
0.019171 0.034768 0.090298
-0.019237 0.010893 0.117348
-0.008431 -0.010189 0.092673
-0.017918 0.012552 0.118020
0.017987 0.036126 0.091251
0.014780 0.028385 0.092557
0.010923 0.003042 0.109354
-0.015548 0.028927 0.122776
0.015629 0.021893 0.091283
-0.010861 0.011723 0.127570
0.007907 0.007678 0.091832
-0.035131 0.007449 0.123383
0.005052 0.020367 0.113775
-0.004112 0.018383 0.122009
0.012538 0.009516 0.092160
0.000482 0.030179 0.109919
-0.010353 -0.020930 0.101330
-0.010417 -0.010030 0.090820
0.053382 0.026920 0.143696
-0.001021 0.061786 0.120185
0.059153 0.041747 0.141232
0.031415 0.000446 0.100610
-0.009690 0.036379 0.119225
0.000496 0.028799 0.109082
0.027031 -0.038803 0.149630
0.004375 0.028552 0.063158
0.018642 -0.006544 0.085528
0.005175 0.022635 0.115497
0.027208 -0.034554 0.148055
0.047853 0.013667 0.144922
0.008981 0.009301 0.092532
-0.001626 -0.000473 0.095829
0.000555 0.028964 0.109055
0.043758 0.046309 0.109727
0.030683 -0.029190 0.148041
0.032766 -0.022836 0.149049
0.016039 -0.005626 0.081611
-0.015857 0.064669 0.140498
0.021845 0.008895 0.076144
0.004507 0.001383 0.088919
-0.026761 0.044939 0.145103
0.006471 0.001360 0.078603
-0.017524 -0.020411 0.106010
0.050424 0.014777 0.145543
0.002671 0.012167 0.071506
0.015515 0.008546 0.093008
0.018447 0.035647 0.091268
0.032082 0.032131 0.091410
0.008173 0.023337 0.060421
0.002128 0.029698 0.108808
0.032362 0.030930 0.090525
0.000100 -0.006694 0.090384
0.002001 -0.004435 0.088897
0.008592 0.014369 0.095970
-0.002392 -0.014672 0.094689
0.026504 0.006660 0.102313
0.002941 -0.002863 0.087590
-0.035259 0.000967 0.121190
0.007232 0.009996 0.091600
0.038799 -0.004897 0.145146
0.005831 0.003417 0.089542
0.011759 0.018581 0.090058
0.002612 0.039001 0.161249
0.007026 0.039991 0.161706
-0.009326 -0.025088 0.108854
-0.001846 0.024953 0.164498
0.026408 0.033897 0.098824
-0.010415 0.010497 0.130723
0.033158 -0.022461 0.148963
0.018085 0.009263 0.093680
-0.009886 0.012212 0.126400
0.026754 0.032911 0.098917
0.014251 0.001686 0.113257
0.021717 0.041297 0.088199
0.029549 -0.023695 0.147445
0.007109 0.005685 0.090140
-0.005111 0.010726 0.127141
0.020226 0.037315 0.089869
0.027918 0.034210 0.095599
0.013172 0.003814 0.107011
-0.025982 0.045682 0.144932
-0.023706 0.047936 0.145434
-0.029219 0.042803 0.144603
-0.001273 -0.011464 0.093156
0.000738 0.002237 0.088162
0.002887 0.012328 0.072477
0.003089 0.012586 0.072424
-0.018666 0.060345 0.141326
0.005867 0.000383 0.076761
0.045730 0.004095 0.145345
-0.001527 0.010332 0.065058
0.036256 -0.012218 0.147346
-0.018290 0.011910 0.117125
-0.001216 -0.013358 0.093393
0.003344 -0.003160 0.086577
0.016312 0.032613 0.092878
-0.002071 -0.013764 0.094541
0.008125 0.007451 0.091840
0.015693 0.067930 0.153225
-0.028197 0.039891 0.144878
-0.016637 0.066371 0.138329
0.020689 0.039691 0.088506
0.015071 0.021182 0.091428
-0.012423 0.070037 0.139475
0.031152 -0.023512 0.147266
0.006718 0.014770 0.079895
0.047184 0.011024 0.145326
0.013806 0.019836 0.093749
-0.003630 -0.016473 0.093015
0.013079 0.018225 0.094027
0.007616 -0.000604 0.063551
-0.003590 -0.011086 0.092319
0.019208 0.036465 0.091089
0.014617 0.023915 0.093147
0.016242 0.008435 0.092952
-0.010782 -0.020996 0.100367
0.032894 0.032273 0.089287
0.009320 0.056083 0.157391
0.014238 0.000931 0.112342
0.035204 -0.015195 0.147831
-0.034032 0.000523 0.121128
0.046279 0.009362 0.144615
0.029575 0.004922 0.101226
0.006582 0.016340 0.043243
0.026919 0.001288 0.101951
-0.006332 0.034040 0.111097
0.028419 0.003730 0.102504
0.013638 -0.008505 0.110574
0.015489 0.015984 0.103197
0.003548 -0.002965 0.086532
0.012993 0.061307 0.155350
0.009109 0.048032 0.158445
0.035707 -0.013882 0.148626
0.028426 0.005780 0.099202
-0.019687 0.012199 0.119249
0.007150 -0.006636 0.084628
0.001419 0.029787 0.162548
0.026318 -0.033475 0.148002
-0.012074 0.031877 0.119022
0.027647 -0.033432 0.148881
0.016835 0.032740 0.092811
-0.004929 0.050691 0.120976
0.026254 0.033952 0.098832
-0.010213 -0.020980 0.101323
0.018579 0.035131 0.091322
-0.007036 0.003812 0.086688
0.019598 0.035538 0.090158
0.005199 0.016834 0.100034
-0.015174 -0.021322 0.102860
-0.011905 -0.027725 0.104379
0.025927 0.033111 0.099984
0.007179 0.015329 0.098010
0.001347 -0.004762 0.090015
-0.025249 0.001255 0.106002
0.001262 0.032069 0.163283
0.008794 0.023293 0.060367
-0.001416 0.065604 0.119733
0.004698 0.006745 0.087199
0.003509 0.028776 0.064226
0.027409 0.029940 0.090119
-0.023198 0.000345 0.105920
0.012032 0.057135 0.156992
0.061733 0.055083 0.139268
0.026203 0.029605 0.090279
0.027078 -0.035769 0.149236
-0.020972 -0.001599 0.103928
0.012759 -0.000479 0.115705
0.023470 0.035298 0.100955
0.004005 0.027930 0.112905
0.007657 0.015937 0.083705
-0.009764 0.002123 0.098311
0.022411 0.041959 0.088047
0.010075 0.010256 0.092303
-0.034152 0.001915 0.119948
-0.004491 -0.016802 0.101244
0.025541 0.036135 0.100646
-0.003423 0.018551 0.121920
0.003831 -0.000251 0.086156
0.043400 0.046438 0.109745
0.046583 0.005225 0.144104
0.005705 0.017316 0.099923
-0.003729 0.017630 0.120043
0.005694 0.015240 0.097152
0.017977 0.008569 0.092767
0.021630 0.039111 0.087476
-0.005214 -0.017207 0.096301
-0.020167 0.007152 0.117919
-0.013306 0.031301 0.119215
0.059168 0.049439 0.139229
0.050397 0.015632 0.144423
0.008489 0.019990 0.054743
0.047065 0.046642 0.111389
0.004776 0.032458 0.065656
0.012865 -0.009200 0.109725
0.039513 -0.009792 0.147732
0.001304 -0.023692 0.102580
0.001090 0.030826 0.106738
-0.006183 -0.011837 0.090641
0.046700 0.046774 0.111408
-0.014609 -0.021526 0.102832
0.019783 0.043440 0.090137
-0.011058 0.005413 0.092949
0.021248 0.008343 0.075260
0.025754 0.036234 0.100613
-0.007934 0.045581 0.118885
0.011104 0.015161 0.092586
-0.008595 0.004375 0.086767
0.034429 -0.020338 0.148567
0.011834 0.010522 0.092099
0.053821 0.029669 0.143300
-0.007381 -0.011699 0.094791
0.059250 0.049672 0.139191
0.008631 0.023785 0.062345
-0.024820 0.002949 0.105742
0.022831 0.036795 0.081580
0.002668 -0.000099 0.086249
0.014925 0.025678 0.092891
-0.004407 -0.017465 0.101321
-0.018556 0.027207 0.124302
0.019558 0.037900 0.090871
0.008543 0.023534 0.062386
0.000544 0.029811 0.162630
-0.003086 0.012533 0.068978
0.004670 0.024601 0.115294
-0.008733 -0.010785 0.093792
0.006389 -0.014590 0.124213
0.012655 0.058071 0.156812
-0.028929 0.005884 0.116906
0.051432 0.023661 0.144304
-0.016528 0.064748 0.139540
0.052696 0.023469 0.144206
0.003338 0.029132 0.064197
0.057356 0.038168 0.141866
0.013378 0.003712 0.105991
0.006590 -0.011421 0.122774
0.055749 0.031531 0.141861
-0.016144 0.065113 0.139456
0.039133 -0.006285 0.146305
0.005361 0.023162 0.115412
-0.028759 0.005823 0.116897
0.032574 0.002228 0.102294
-0.010842 0.005189 0.092957
-0.004938 0.014581 0.123590
-0.025849 0.021618 0.110534
0.006028 0.000002 0.071730
0.013991 0.022304 0.092402
0.017882 0.035383 0.091357
0.029472 0.031322 0.087716
0.023768 -0.037094 0.148714
-0.011584 0.005586 0.088927
-0.008826 0.002587 0.096135
-0.001795 -0.011707 0.093238
-0.001744 0.010680 0.066048
0.018687 0.039039 0.086758
0.033516 0.029873 0.091561
-0.028598 0.005194 0.116962
0.011934 0.015774 0.092427
0.005314 0.021222 0.114652
-0.000901 -0.016105 0.096754
-0.009730 -0.028175 0.109290
-0.017908 0.014102 0.116807
-0.034715 0.000191 0.122249
0.026134 0.030475 0.084097
0.015714 0.023223 0.092116
0.007075 0.014580 0.097103
0.013527 0.019937 0.093764
-0.017386 0.066392 0.138399
-0.007963 -0.012512 0.094952
0.023953 -0.038637 0.147882
0.040068 -0.005849 0.146158
0.025509 0.034032 0.100919
0.004149 -0.000500 0.086157
0.016605 0.027063 0.091537
-0.017961 0.013548 0.117896
-0.012499 -0.014333 0.089549
0.012880 0.027921 0.071530
0.030372 0.032404 0.093567
-0.012998 0.003081 0.097489
0.005290 0.032302 0.066639
-0.031121 0.006062 0.119121
0.017866 0.036908 0.089137
0.012557 -0.000819 0.116781
-0.010950 0.006409 0.089772
0.007318 0.005314 0.027369
0.004956 0.004943 0.021569
-0.006078 0.011075 0.127190
0.019867 0.039532 0.088606
0.001463 0.026683 0.107234
-0.005590 -0.011345 0.093559
0.005666 0.032647 0.065546
0.007228 0.017083 0.046123
0.013798 0.021758 0.092491
0.043006 -0.000053 0.147155
0.025662 -0.014491 0.110177
0.007897 0.006183 0.087974
0.007542 0.007069 0.091946
0.019641 0.037246 0.090947
-0.024091 0.048842 0.144342
0.016338 0.016897 0.102997
-0.002843 0.056495 0.118003
-0.001779 0.010423 0.065071
0.039745 -0.009877 0.147720
0.063103 0.048640 0.143002
-0.009952 0.011827 0.127469
0.055642 0.034824 0.142462
-0.000902 0.002473 0.092342
0.029003 -0.024515 0.147604
0.044156 0.003202 0.146625
0.011154 0.018781 0.088065
-0.010187 -0.028010 0.109313
0.020636 0.046396 0.093727
-0.000133 -0.007787 0.091560
0.011459 0.012459 0.091886
-0.014227 0.066943 0.139035
0.006316 0.039659 0.161818
-0.004149 -0.011452 0.092420
0.005278 -0.001210 0.042585
-0.006663 0.012839 0.128033
-0.000744 -0.011546 0.092102
0.047664 0.011637 0.145201
0.016347 -0.006216 0.082670
0.013956 -0.005524 0.110160
-0.006371 0.045849 0.118699
0.006100 0.014073 0.079031
-0.030592 0.006453 0.119019
0.014910 -0.009551 0.112611
0.002689 0.011296 0.071616
0.048663 0.046834 0.112222
-0.028617 0.044072 0.145394
0.015273 0.023990 0.093073
-0.010079 -0.013500 0.095284
0.008418 -0.011199 0.123581
0.055143 0.038168 0.140054
-0.024098 0.021896 0.110329
0.032535 -0.022752 0.149060
0.027750 -0.031689 0.148647
-0.002817 0.058440 0.118763
-0.018645 0.015340 0.116719
-0.021226 0.006369 0.118122
0.007241 0.049603 0.159438
-0.009096 -0.025591 0.105858
0.013324 0.027875 0.071493
-0.013845 0.066738 0.140037
-0.026069 0.021515 0.110569
-0.034168 0.006213 0.122436
0.015017 0.058959 0.156469
0.014163 0.021471 0.092492
-0.012840 -0.016652 0.094944
0.028975 0.031201 0.087780
0.042891 0.001999 0.145889
0.015190 0.017609 0.100991
0.003770 0.000649 0.087059
0.008204 0.006830 0.091912
-0.003755 -0.010742 0.092291
0.014778 0.019919 0.091619
0.021615 0.008231 0.086380
-0.027588 0.019367 0.112005
0.011306 0.003086 0.109311
0.026521 -0.037347 0.149493
0.022283 0.034348 0.077896
-0.005673 -0.011170 0.093545
0.007588 0.017073 0.046090
0.033563 -0.021316 0.148776
-0.001816 0.030752 0.109055
-0.001170 -0.000485 0.095787
-0.018705 0.028386 0.123152
-0.021441 -0.000117 0.103783
-0.014877 -0.020481 0.102723
0.007739 0.017164 0.047076
-0.001320 0.024762 0.164472
0.013183 0.025820 0.091015
0.006914 0.016574 0.044193
0.004897 0.003613 0.089607
0.043264 0.001427 0.146939
-0.025054 0.000848 0.106035
0.031999 0.031685 0.090463
0.020786 0.043003 0.088071
0.004601 0.004990 0.020584
0.009173 0.046557 0.158629
0.007771 0.001951 0.112838
0.039851 -0.008093 0.147481
0.025374 0.008046 0.099206
0.021752 0.009039 0.091327
-0.008791 -0.009436 0.094637
-0.001388 0.010437 0.067057
-0.020088 0.003921 0.117313
-0.034807 0.004905 0.123679
-0.000623 0.024216 0.164474
-0.005590 0.002637 0.091763
-0.008267 0.013127 0.126126
-0.005814 0.051683 0.118909
0.040769 -0.009206 0.147534
0.000076 -0.010848 0.091933
-0.007114 0.003974 0.086675
-0.004552 0.015072 0.123490
0.023961 0.007317 0.097411
0.026822 0.030648 0.099201
0.044179 0.046357 0.109680
-0.011641 -0.015420 0.095682
0.006502 -0.000169 0.071706
0.013341 -0.000495 0.115651
-0.008081 -0.020048 0.098970
0.015446 0.021807 0.091311
0.009850 0.050957 0.157998
-0.003647 0.016133 0.122253
0.006074 0.005320 0.089274
0.017093 0.036547 0.088245
0.006024 0.044490 0.160212
0.007990 0.015761 0.082683
0.005834 0.007011 0.090093
0.035921 -0.013904 0.147595
0.000329 0.002752 0.089148
0.023517 0.034928 0.100998
-0.011713 -0.014371 0.095555
0.012793 0.021245 0.091641
0.020292 0.007065 0.072478
0.003411 0.001133 0.088045
0.027734 0.035244 0.099535
0.026583 0.031905 0.091973
-0.021072 0.003187 0.120541
0.005644 0.033166 0.065481
0.006868 -0.001329 0.060678
-0.010877 0.010872 0.128694
-0.003883 0.002404 0.086563
0.016819 0.068668 0.153021
0.004451 -0.000142 0.087094
-0.009959 -0.011196 0.095989
0.011455 0.022821 0.063208
-0.034084 0.006503 0.121377
-0.005440 0.001522 0.090879
-0.002504 -0.016239 0.094901
0.039699 -0.004682 0.146044
-0.002967 0.012286 0.068999
0.009598 0.021496 0.058494
0.026657 -0.038413 0.149617
0.019349 0.038502 0.088788
-0.011301 -0.022819 0.103690
0.012951 0.003381 0.108101
0.015474 0.017190 0.102031
0.012771 -0.001963 0.113869
0.010478 0.012953 0.092931
0.014075 0.030082 0.074176
0.003830 -0.016758 0.125753
-0.020808 0.026129 0.126684
-0.003891 0.054797 0.119335
-0.000320 -0.010890 0.094002
0.030252 -0.027509 0.147867
0.005472 0.016584 0.099027
0.062604 0.053180 0.138415
0.025389 0.030795 0.091218
-0.007466 0.002654 0.092956
0.006408 0.033980 0.066315
-0.005270 0.050225 0.119043
0.018231 0.030994 0.089861
0.039477 -0.012122 0.148034
0.006037 0.002251 0.082582
0.029759 0.023890 0.066360
-0.027403 0.043121 0.145399
0.057418 0.036681 0.143063
0.029814 0.030150 0.089859
0.021982 0.040745 0.088245
-0.010543 -0.012310 0.095176
0.007797 0.016658 0.045110
0.001828 -0.002478 0.086636
0.014920 0.019656 0.092652
0.059791 0.054197 0.138558
0.045999 0.006341 0.145030
0.012680 0.027418 0.070602
-0.015219 0.066292 0.139215
0.014578 0.062322 0.154053
0.023353 0.033107 0.099222
0.024522 0.025257 0.083911
0.001313 0.031110 0.108706
-0.006299 0.013534 0.126895
-0.028617 0.042331 0.144605
0.036103 -0.013505 0.148539
0.040896 -0.011073 0.147762
0.020523 0.006758 0.072495
0.002932 0.025154 0.105263
0.027050 -0.035001 0.148127
0.007566 0.004511 0.090246
-0.006546 0.011924 0.128139
-0.025077 0.022629 0.108304
0.014506 0.020017 0.091633
0.055167 0.029710 0.143164
-0.032552 0.005751 0.121325
0.002464 -0.000293 0.086294
-0.009522 -0.009235 0.096708
0.061640 0.059345 0.138730
-0.011939 -0.026603 0.103225
0.007593 0.006231 0.090023
0.026431 0.035637 0.100624
0.014589 0.059404 0.156453
0.000974 -0.005060 0.091102
-0.005074 -0.011531 0.093533
0.004142 0.004962 0.019619
0.020898 0.079222 0.150256
0.014274 -0.006185 0.110214
0.001220 0.028723 0.109022
0.015217 0.023386 0.093157
0.002032 -0.005137 0.088984
0.005801 0.017115 0.099940
0.017961 0.037177 0.089093
0.009844 0.021669 0.059461
0.020084 0.076105 0.150736
0.014144 0.029936 0.074187
0.001895 0.029038 0.108916
0.017111 0.032166 0.092858
-0.003824 0.016822 0.122181
0.010988 0.011128 0.092103
0.028374 0.005632 0.099226
0.003819 0.023323 0.115540
-0.015076 0.022424 0.117489
-0.012197 0.004871 0.094142
0.008450 0.020358 0.055713
-0.013207 0.029836 0.119394
0.006715 0.016562 0.043201
-0.017522 0.027538 0.123146
0.021226 0.039040 0.088537
0.022902 -0.038758 0.147999
-0.024966 0.022945 0.108252
-0.001953 -0.015373 0.092711
0.031169 0.032454 0.090445
0.006626 -0.004107 0.074226
-0.001588 -0.013647 0.094479
-0.002195 -0.012428 0.093369
0.002385 0.011849 0.072587
0.016270 -0.005331 0.081550
-0.010418 -0.010879 0.091942
0.024840 0.035155 0.100840
-0.001920 -0.017108 0.100021
0.026409 -0.032499 0.147868
0.005352 -0.001614 0.043643
0.003750 0.029179 0.064151
0.022738 0.040963 0.087131
0.014129 0.022255 0.092395
-0.017930 0.018303 0.118295
-0.008436 0.002835 0.095052
0.024814 -0.016371 0.110500
0.002105 -0.005716 0.089051
0.003892 0.012570 0.074374
-0.009707 0.039272 0.118855
-0.018917 0.009030 0.117556
0.005096 -0.015550 0.125475
0.003701 0.001166 0.088012
0.017832 0.032854 0.092700
-0.000309 -0.018783 0.100080
0.027051 0.030686 0.090058
-0.004157 0.054044 0.119458
0.004860 0.003911 0.089573
0.004980 0.000166 0.038386
0.007465 0.017449 0.047066
0.039268 -0.010485 0.147844
-0.021293 0.056031 0.143148
0.028858 0.031259 0.090822
0.014707 0.065138 0.153679
0.006906 -0.013127 0.123975
-0.008401 0.012747 0.126187
-0.001596 -0.000270 0.096813
0.037791 -0.013031 0.147302
0.019362 0.037346 0.090961
-0.035321 0.008017 0.124341
-0.001414 0.001429 0.095565
0.006566 0.020629 0.111569
-0.010831 -0.013959 0.095416
0.006692 -0.000238 0.071696
0.009307 0.055217 0.157503
0.022459 0.042094 0.088025
0.024879 -0.015666 0.110403
0.022642 0.006760 0.095585
0.035700 0.001463 0.106141
0.005711 0.003887 0.089493
0.007639 0.009786 0.092600
0.006705 0.007571 0.092975
0.021152 0.008305 0.076287
-0.037637 0.002087 0.124315
0.015479 0.031255 0.092120
0.027080 -0.030685 0.148583
0.046828 0.047136 0.111349
-0.027323 0.043348 0.145362
-0.006821 0.047633 0.119527
0.008748 0.007188 0.093839
0.009293 0.054351 0.157616
0.005310 -0.016468 0.124559
0.020608 0.007770 0.092614
0.024556 0.033848 0.101036
0.050245 0.015949 0.144397
0.027889 0.003228 0.098569
-0.002008 0.002613 0.094457
0.001450 -0.007364 0.091352
0.014221 0.067031 0.153483
-0.002707 0.030887 0.109124
-0.023295 0.051594 0.142899
0.002859 0.011775 0.071538
0.013522 0.024176 0.091194
0.039906 -0.006307 0.146233
0.001253 -0.005429 0.090110
-0.008120 0.045649 0.118895
-0.003062 0.017488 0.121009
0.012757 0.015933 0.092327
0.045311 0.044008 0.111897
-0.024875 0.021739 0.109411
-0.027538 0.049320 0.144615
0.051466 0.020742 0.144675
0.015528 -0.007822 0.111316
-0.010834 -0.012620 0.094232
0.030618 -0.023573 0.147326
0.060296 0.056374 0.138229
0.005239 -0.000257 0.040441
-0.010996 -0.023196 0.101683
-0.005158 -0.011357 0.093519
0.047405 0.044944 0.110561
0.014465 0.026156 0.092874
-0.004371 0.031489 0.109209
-0.003933 -0.011246 0.092373
0.060248 0.053245 0.138636
0.004695 0.032101 0.066723
-0.001057 0.060430 0.119350
-0.035375 0.007335 0.123422
0.008677 -0.010468 0.123462
0.056469 0.037167 0.142080
0.002365 0.002110 0.087008
0.005144 -0.001488 0.043647
0.010871 -0.005664 0.119593
-0.009995 -0.013677 0.095299
-0.023781 0.048987 0.144294
0.009075 0.009567 0.092489
-0.010427 0.005394 0.091878
-0.000822 -0.010186 0.092948
-0.009139 -0.007722 0.096476
-0.011402 -0.025235 0.101984
0.013704 0.027649 0.091743
-0.006036 -0.018688 0.096571
0.015554 0.027012 0.092658
0.003764 0.002525 0.087832
-0.018732 0.013429 0.116973
-0.000781 -0.017049 0.096864
-0.015464 -0.021692 0.102936
0.006594 0.033913 0.066306
0.021267 0.038721 0.088574
0.014611 0.026572 0.092806
-0.004918 0.010656 0.127131
0.003487 0.029274 0.064165
0.020127 0.007237 0.072472
0.045301 0.006593 0.145065
-0.024670 0.002895 0.105735
-0.010088 -0.021963 0.101437
-0.001796 -0.016229 0.098883
0.018096 0.031090 0.091888
-0.007632 0.032772 0.120502
-0.021527 0.001877 0.116702
-0.010968 -0.021083 0.100396
-0.004986 0.051140 0.120924
-0.000186 -0.022668 0.099554
0.013058 0.016827 0.094209
0.015283 0.030701 0.092210
0.032782 0.002325 0.102262
-0.010714 -0.014878 0.095523
-0.003047 0.008025 0.063477
0.014863 0.027730 0.092633
0.001855 -0.004525 0.089935
0.046358 0.004389 0.145246
0.012308 0.017980 0.093120
0.030814 0.026374 0.086196
0.033388 0.002548 0.103187
0.024921 0.007711 0.099293
-0.011374 0.005787 0.088881
-0.010839 -0.011735 0.093105
0.051030 0.023278 0.144392
-0.010576 -0.019298 0.099116
0.041880 -0.001744 0.147481
0.051018 0.022490 0.144494
-0.004620 -0.017227 0.095234
0.006517 -0.012211 0.122882
-0.015380 -0.019743 0.103690
-0.001542 0.030466 0.109066
-0.006131 0.014802 0.123677
0.026599 -0.034838 0.148150
-0.020354 0.026181 0.126634
-0.010933 -0.022855 0.102646
-0.021010 0.003363 0.120513
-0.009146 0.034855 0.117342
0.010821 0.003842 0.111287
0.013586 0.025996 0.091967
0.001912 -0.002240 0.086597
-0.004972 0.054763 0.119444
0.026538 0.032300 0.099016
0.001306 0.028752 0.110023
-0.011848 -0.016722 0.094857
0.011555 0.018137 0.089122
-0.018973 0.060201 0.141374
-0.000088 -0.007661 0.091539
0.010464 0.021338 0.060456
-0.025793 0.021710 0.109504
0.005369 0.016293 0.099074
0.031497 0.002617 0.102349
0.045080 0.007453 0.144976
0.031130 0.001558 0.100494
0.007527 0.001644 0.113914
-0.000190 -0.008396 0.092656
0.015337 0.025060 0.092930
-0.033882 0.002627 0.120843
0.006527 -0.004072 0.074231
0.024557 0.004961 0.095631
0.004782 0.001665 0.089869
0.028816 0.005085 0.100266
-0.033083 0.005943 0.121352
0.003342 0.002084 0.088942
-0.012809 0.069669 0.139560
-0.013434 0.030939 0.119274
0.046983 0.008212 0.145707
0.003448 0.012617 0.074411
0.012929 0.062771 0.155169
-0.006611 0.015678 0.121586
-0.017256 0.029071 0.123936
0.018412 0.036440 0.091170
0.001037 -0.006505 0.091282
0.006803 -0.000399 0.064616
-0.001518 -0.010511 0.093057
0.015494 -0.006805 0.082828
0.029093 -0.028615 0.148122
-0.009843 -0.025748 0.106963
-0.011714 -0.017293 0.095930
0.015305 -0.006608 0.082821
0.044223 0.045340 0.109806
0.004988 0.000752 0.037297
-0.022527 -0.000381 0.103922
0.007929 0.011966 0.091279
0.030550 -0.023040 0.147264
0.009598 0.004098 0.111372
0.002686 -0.003587 0.087708
0.021662 0.008721 0.076184
0.041829 -0.006206 0.147046
-0.006868 0.004287 0.086611
0.019743 0.035948 0.090091
-0.026019 0.021071 0.109608
0.027871 0.029927 0.090076
-0.023760 -0.000592 0.104069
0.014817 0.018923 0.092756
-0.025760 0.020310 0.110693
0.015265 0.016595 0.104153
0.007807 0.006973 0.091932
-0.036023 -0.001324 0.123584
0.027594 0.029283 0.089173
-0.013125 0.028206 0.118582
0.016369 0.033225 0.092794
-0.030887 0.006172 0.119084
0.011198 0.022914 0.063221
0.005289 0.036572 0.161301
0.017889 0.035849 0.091296
0.049271 0.013941 0.144749
0.026621 0.034080 0.099793
0.004816 0.005361 0.090404
-0.010890 -0.012285 0.093181
0.022492 0.037902 0.082483
-0.011416 -0.020151 0.100320
0.020662 0.037875 0.088741
0.061632 0.056416 0.138094
0.030227 -0.021918 0.149177
-0.011928 -0.014147 0.095547
-0.001596 -0.012788 0.093357
-0.035431 0.003716 0.123892
-0.024640 -0.000274 0.104113
-0.014671 -0.019448 0.102571
0.025298 0.036299 0.099636
0.001062 -0.007651 0.091426
0.018341 0.031782 0.091775
0.056540 0.036613 0.142145
0.014960 0.024884 0.092989
0.043569 0.000792 0.146991
0.046398 0.011046 0.145400
0.016955 0.031273 0.092988
0.028063 0.031234 0.090902
0.009739 0.002372 0.111581
0.009092 0.003361 0.113542
0.027237 0.005597 0.098327
0.022584 0.036885 0.081592
0.005274 0.016491 0.099058
0.060158 0.045347 0.140672
0.000461 -0.022594 0.099482
0.003443 0.012017 0.072463
0.052508 0.026708 0.143808
-0.021455 -0.000781 0.104882
-0.019064 0.059217 0.141509
0.003474 0.038105 0.161280
0.009433 0.046463 0.158615
-0.002828 0.006969 0.060552
-0.006547 0.015861 0.121556
0.000031 -0.021599 0.101421
0.026983 -0.034472 0.148066
0.012895 0.020080 0.092794
0.058184 0.040511 0.141484
-0.023595 0.020735 0.109416
-0.001874 -0.015002 0.096707
0.022499 0.041775 0.088062
0.007217 0.015461 0.081783
0.014893 -0.010662 0.112755
-0.001590 0.062066 0.121217
0.009019 0.020830 0.056610
0.030569 -0.000479 0.099798
-0.000745 -0.010790 0.093018
0.020301 0.038157 0.088740
-0.016817 0.028334 0.122975
-0.021179 0.004123 0.117393
-0.011445 -0.014030 0.095485
0.002615 0.002428 0.086942
0.012282 0.026422 0.068742
0.021456 0.008714 0.087346
-0.023229 0.054937 0.143476
-0.002465 -0.019097 0.100329
0.019323 0.039728 0.088633
-0.026103 0.019341 0.110851
0.019397 0.075785 0.150844
-0.020604 0.004107 0.117339
-0.024944 0.003530 0.106693
0.024622 0.037529 0.081312
-0.023852 0.050016 0.143156
-0.018500 0.025369 0.123520
-0.012099 -0.014395 0.091544
0.025516 0.026292 0.084694
0.007800 0.017514 0.047025
-0.037402 0.001597 0.124355
0.029152 0.023685 0.066445
0.007940 0.019025 0.052895
0.003063 -0.002907 0.087584
-0.010676 0.036530 0.119301
0.008200 0.017092 0.046028
0.025923 0.032523 0.099047
-0.006574 0.048837 0.118335
0.033128 0.001339 0.102355
-0.000341 -0.017673 0.097914
-0.008590 -0.012263 0.092955
0.009031 0.015159 0.095826
-0.017231 -0.020517 0.105995
-0.009578 -0.012353 0.094075
0.060049 0.055677 0.138342
0.055181 0.035783 0.142383
0.044125 0.046777 0.109631
0.012006 0.024877 0.066942
0.013322 0.029043 0.073369
-0.011271 0.032403 0.118876
0.012482 0.020230 0.092815
-0.017499 -0.020258 0.103962
0.022116 0.009152 0.085200
-0.001860 0.010626 0.066066
0.005525 0.033393 0.067489
0.001967 -0.005407 0.090038
-0.001492 0.030076 0.109111
-0.022129 0.056589 0.143157
-0.012189 -0.016454 0.094855
0.002206 -0.001407 0.086462
-0.001347 0.009752 0.063090
0.017353 -0.005989 0.084569
-0.009913 -0.026823 0.108121
0.021725 0.009008 0.080192
0.039193 -0.007854 0.148527
0.011725 0.056458 0.158122
0.045092 0.008230 0.144875
-0.015429 -0.022495 0.103036
-0.016389 0.018142 0.118166
0.008034 0.010150 0.091502
-0.003815 0.055618 0.119222
-0.002102 -0.015220 0.096757
-0.005821 0.014480 0.123689
-0.025940 0.019282 0.110843
0.021510 0.040055 0.087366
0.006592 -0.000520 0.071742
-0.013243 0.028450 0.118562
-0.004110 -0.016204 0.094040
0.011345 0.057674 0.156990
0.015301 0.023372 0.092137
0.021490 0.009583 0.091283
0.060448 0.056057 0.138255
0.015853 -0.005432 0.081604
0.012215 0.026230 0.068774
-0.004926 0.002270 0.089720
0.014437 0.027415 0.092715
-0.010003 -0.011912 0.094060
0.006904 0.014576 0.079901
-0.020718 0.003059 0.120523
0.058563 0.044602 0.140922
-0.016471 0.064382 0.140594
-0.002165 0.009237 0.063235
0.021576 0.008244 0.087395
0.006324 0.033635 0.065355
-0.005712 -0.010868 0.093510
0.010825 0.017958 0.087190
-0.028366 0.040394 0.145842
0.015153 0.020544 0.091502
-0.005889 -0.018656 0.097566
0.020227 0.039249 0.088607
0.035386 0.002117 0.106087
0.004010 0.038788 0.161140
0.022158 0.008889 0.078140
-0.002405 -0.015543 0.094802
0.018526 0.038343 0.088888
-0.007385 0.044758 0.118938
0.006136 0.004164 0.090430
0.008955 0.010511 0.092379
-0.025133 0.022471 0.108329
0.015398 0.065461 0.153571
-0.005894 0.010360 0.127264
0.018894 0.038514 0.088831
0.027579 -0.032899 0.148819
0.060787 0.052525 0.138676
0.025211 0.025834 0.084783
-0.034840 -0.000160 0.122307
0.016085 0.030164 0.093215
0.026687 0.030014 0.091193
0.018090 0.033746 0.091547
0.045650 0.046132 0.111592
0.024282 0.004494 0.094704
0.049119 0.014259 0.144723
0.010948 0.022289 0.062313
0.001784 -0.023705 0.102535
-0.013166 -0.020150 0.102515
0.014605 0.029956 0.094398
0.008708 0.050209 0.158205
0.015128 0.026697 0.092740
-0.000937 -0.009279 0.092842
-0.012073 -0.017361 0.094961
0.014206 0.018300 0.091882
-0.034274 0.001571 0.120004
-0.010376 -0.027090 0.109213
-0.016358 0.065019 0.138476
-0.001267 0.030181 0.109076
0.009123 0.014968 0.095842
-0.008307 -0.008099 0.097457
0.009040 0.009194 0.091527
-0.015693 0.021956 0.118621
0.004901 0.006534 0.087206
-0.011701 0.069056 0.138518
0.021540 0.041665 0.088169
0.015449 0.017856 0.100935
0.044004 -0.001136 0.148210
0.031724 -0.025657 0.148499
-0.002183 -0.015942 0.097871
0.021205 0.037678 0.088714
0.021173 0.008935 0.092410
-0.015014 0.027321 0.121918
0.045843 0.002394 0.144539
0.020838 0.037507 0.088772
-0.000836 0.002936 0.091263
0.032034 0.030892 0.090561
0.004026 0.021492 0.114743
0.046499 0.045621 0.111575
0.015943 0.026069 0.091729
-0.000420 -0.001667 0.098905
0.006976 -0.000103 0.063549
-0.011905 0.028776 0.118391
-0.034785 0.002338 0.119955
-0.005892 0.033612 0.110096
0.016661 0.016453 0.106062
-0.002315 0.030932 0.109081
-0.000384 -0.009767 0.092851
0.005362 0.006145 0.089237
0.061009 0.051658 0.138765
0.029605 0.031145 0.090764
-0.016716 -0.019061 0.105758
-0.010625 -0.010664 0.091934
-0.016290 -0.019645 0.104779
0.040409 -0.007254 0.147319
0.033467 0.029733 0.091584
0.016608 0.030292 0.093147
0.041014 -0.008513 0.147422
0.000687 0.027713 0.162885
0.005431 -0.000440 0.041458
0.042551 -0.004905 0.146809
0.005738 -0.000319 0.042426
0.033458 0.029911 0.089536
0.018920 0.032978 0.091565
0.009345 -0.007415 0.120979
0.006941 0.017548 0.045078
-0.025066 0.002212 0.106874
-0.000922 -0.017448 0.096929
0.002314 0.031689 0.163230
-0.011829 -0.020001 0.100341
0.049331 0.017853 0.144241
-0.001589 -0.012358 0.093301
-0.013015 0.030379 0.119305
0.012704 0.001104 0.113482
0.008111 0.013910 0.096076
-0.001705 -0.011452 0.093196
0.016658 0.008327 0.091913
0.021683 0.009511 0.092286
0.006648 0.016370 0.043233
0.008012 0.013630 0.096122
-0.009724 -0.010663 0.096911
0.041817 -0.006982 0.147147
0.006572 0.015075 0.079870
0.008822 0.023373 0.060354
0.059486 0.047968 0.140400
0.008862 0.015904 0.083593
0.024705 0.005382 0.095562
0.009513 0.051659 0.157940
-0.005445 0.014344 0.123670
0.009316 0.013808 0.094959
0.000861 0.068381 0.120168
0.004803 -0.017316 0.124717
-0.017710 0.063050 0.140886
0.008264 0.007845 0.091776
0.018273 0.036491 0.091177
-0.034916 0.001414 0.120086
-0.014610 0.066577 0.139119
0.021003 0.042316 0.088138
-0.024629 0.048781 0.144403
-0.023657 -0.000301 0.104021
-0.013297 0.028874 0.118513
-0.000951 0.025806 0.164302
-0.004962 -0.011727 0.092534
0.013549 0.022949 0.091349
0.025061 0.035780 0.100738
0.023825 0.032129 0.100314
0.044955 0.043201 0.111023
-0.006548 0.049006 0.119324
0.046867 0.010877 0.145376
0.026099 0.034094 0.099841
0.019709 0.032537 0.091545
0.022315 0.039682 0.084297
0.062043 0.057578 0.137905
-0.003418 -0.011006 0.092292
0.004161 0.004959 0.019618
0.000158 -0.008234 0.092602
